# .PCD v0.7 - Point Cloud Data file format
VERSION 0.7
FIELDS x y z
SIZE 4 4 4
TYPE F F F
COUNT 1 1 1
WIDTH 1366
HEIGHT 1
VIEWPOINT 0 0 0 1 0 0 0
POINTS 1366
DATA ascii
0.3170056 0.018069182 0.033985283
0.38371351 0.017891636 0.034132101
0.31747356 0.022007052 0.034005605
0.3833445 0.022068877 0.033957969
0.31829086 0.026016725 0.033986498
0.38247141 0.025973342 0.034060396
0.31948173 0.02967846 0.033990126
0.32021189 0.031683773 0.034283601
0.38115644 0.029928362 0.034024138
0.3213869 0.033991758 0.033965427
0.37915733 0.034352299 0.034048747
0.38020763 0.032426547 0.034149207
0.32327878 0.036870092 0.034129094
0.32495174 0.038826533 0.034028515
0.37543863 0.03937545 0.033904031
0.3771956 0.037359953 0.033980604
0.32693374 0.040909424 0.03399647
0.32898101 0.042937063 0.033988908
0.37131894 0.043456566 0.034109022
0.37348241 0.041448947 0.033983115
0.33096933 0.044600114 0.033880718
0.33388788 0.046339966 0.033819776
0.3368417 0.047812622 0.033956423
0.36667797 0.046809215 0.03400195
0.36949018 0.044968724 0.033948153
0.33865061 0.048546072 0.034424964
0.34156331 0.049460471 0.03374749
0.34504715 0.050373033 0.034671724
0.36267385 0.048589122 0.033539344
0.33549285 -0.012080693 0.037747279
0.33807826 -0.013220984 0.038042895
0.34171647 -0.01446007 0.038016371
0.34762734 -0.015429541 0.038096409
0.3481954 -0.015546463 0.036725976
0.35488507 -0.015251465 0.03770021
0.35876843 -0.014563074 0.038095344
0.36214396 -0.013425096 0.03803027
0.36486116 -0.012256191 0.038194019
0.33074513 -0.0091510192 0.038028907
0.33360428 -0.011003767 0.038122419
0.36688897 -0.011202676 0.038001072
0.3698715 -0.0093402918 0.037959252
0.32651678 -0.0053245262 0.037960999
0.32860601 -0.0074099209 0.03796665
0.37180743 -0.0078776013 0.038176917
0.37403461 -0.0057124938 0.038013201
0.32294837 -0.0011075631 0.037955005
0.32460961 -0.0031938092 0.038110249
0.3758435 -0.0036168403 0.038315371
0.37744436 -0.0019009726 0.037968539
0.3198761 0.0037253436 0.036943018
0.32098594 0.0018057021 0.038104586
0.37934324 0.00079818896 0.038095597
0.38048506 0.0027864475 0.038013041
0.31899178 0.0060396437 0.037986517
0.38180554 0.006058916 0.038012657
0.31777555 0.0099562909 0.037978176
0.38288975 0.010146912 0.037984464
0.31706139 0.014018379 0.038027648
0.38354698 0.013953449 0.038047306
0.31702226 0.017911483 0.038058713
0.38377386 0.017897669 0.03811698
0.3175022 0.022037517 0.038005017
0.38342491 0.021998763 0.037995379
0.318286 0.026008997 0.038041022
0.38253829 0.026104148 0.03808561
0.3194162 0.02960212 0.038033672
0.32014871 0.031705044 0.037824199
0.3812781 0.029934166 0.037919443
0.32124346 0.033946283 0.038020384
0.37924781 0.034496333 0.038027424
0.38027129 0.032511953 0.038060315
0.32315564 0.036870629 0.038168963
0.32496837 0.039005127 0.038000602
0.37556219 0.039541893 0.038201179
0.3772299 0.037572179 0.038146112
0.32695532 0.041134778 0.037992552
0.32894471 0.043108817 0.037942559
0.37143433 0.043580696 0.037475698
0.37365374 0.041510209 0.037953615
0.33079401 0.044756882 0.038173839
0.33385435 0.046561994 0.037965886
0.33614263 0.047649074 0.036376551
0.36649847 0.047154747 0.037987117
0.36972973 0.045050662 0.038043473
0.33804646 0.048507165 0.038131777
0.34166881 0.049693745 0.037921607
0.34614909 0.050780099 0.038248483
0.36231646 0.049030874 0.038731329
0.3646819 0.04807714 0.038402997
0.33816361 -0.013020755 0.042029902
0.34179711 -0.014274697 0.041876275
0.34670597 -0.015174432 0.041617222
0.3581776 -0.014446842 0.04210652
0.36215276 -0.013219242 0.042006847
0.36440516 -0.012344654 0.041819461
0.3307662 -0.0089531131 0.041961715
0.33416265 -0.01109986 0.041972175
0.36647087 -0.011206803 0.042145763
0.36979654 -0.00916743 0.042028327
0.3266471 -0.0052735391 0.042034965
0.32861775 -0.007205925 0.042022727
0.37179717 -0.00765554 0.04161289
0.37376979 -0.0057777786 0.041949689
0.32304004 -0.00098356162 0.042007938
0.32474163 -0.0031317621 0.04205554
0.37561208 -0.003782917 0.042224325
0.37738872 -0.0017663823 0.041992605
0.32101756 0.002010169 0.042021587
0.37933978 0.00094911468 0.041984327
0.38049886 0.0029704508 0.042064752
0.31916866 0.0058946474 0.042027362
0.3817921 0.0061594215 0.042039052
0.3178404 0.0099254129 0.041957662
0.38285667 0.009990911 0.041979585
0.31708398 0.013929097 0.041971643
0.38352525 0.013800648 0.042015713
0.3170543 0.017998084 0.042007923
0.38379756 0.017858922 0.042011019
0.38400838 0.018394882 0.04345135
0.31749067 0.021940351 0.041966103
0.38349977 0.021969203 0.041970029
0.31824136 0.025929188 0.042075552
0.38264322 0.026059793 0.042023554
0.31941274 0.029727058 0.042026449
0.32012632 0.031804249 0.041907463
0.38132033 0.030114943 0.042003818
0.3212148 0.034027234 0.042069726
0.37937632 0.034529399 0.041985646
0.38029695 0.032735512 0.041967787
0.32322717 0.037115678 0.042008109
0.32482001 0.039014071 0.04204591
0.37571138 0.039603185 0.041602317
0.37741783 0.03757704 0.042098232
0.32679275 0.041166943 0.041979808
0.32876283 0.043142796 0.042026114
0.37162203 0.043715157 0.041841645
0.37372619 0.041723963 0.042119462
0.33060867 0.044829536 0.042140171
0.33383319 0.046829212 0.04214352
0.33627477 0.047934297 0.040737078
0.36693326 0.047208093 0.041994683
0.36968377 0.045361277 0.042014495
0.33818811 0.048780281 0.042262763
0.34183878 0.049962897 0.04203549
0.34519801 0.05077453 0.041638445
0.36173505 0.049428135 0.042394746
0.36450532 0.048319254 0.042108305
0.3382678 -0.012847463 0.045941576
0.34173012 -0.014070046 0.045879677
0.34451711 -0.014757845 0.046229497
0.35840923 -0.014186245 0.046144091
0.36229393 -0.01298555 0.045936346
0.36423615 -0.012176395 0.046356678
0.33089596 -0.0088440757 0.045821067
0.33406833 -0.010816201 0.046082351
0.36649728 -0.010995351 0.045941688
0.36958289 -0.009108522 0.046008095
0.32670131 -0.0051269261 0.046031505
0.32877049 -0.0071305879 0.046100616
0.37151718 -0.0076454002 0.046078395
0.37367567 -0.0056579388 0.045961708
0.32328457 -0.0010854997 0.045977809
0.32477412 -0.002966986 0.046034396
0.37563184 -0.0036053089 0.045852683
0.37738088 -0.001569334 0.046028677
0.32116815 0.0019389431 0.046045486
0.37933525 0.0011130362 0.045998044
0.38046488 0.0030448218 0.045936845
0.31924185 0.0059801778 0.045939092
0.38163897 0.0058823773 0.046077743
0.3178699 0.010000369 0.046029527
0.38279846 0.0098317843 0.046001237
0.31705946 0.014047033 0.045968473
0.38353622 0.013906672 0.046013184
0.31707358 0.017954255 0.045974661
0.38379386 0.017756097 0.045848366
0.38403088 0.018312704 0.046483722
0.31751135 0.022042146 0.04596829
0.38357455 0.021924522 0.045969583
0.31821868 0.025961848 0.045992155
0.38276997 0.025944427 0.046008419
0.31939706 0.02981545 0.04612257
0.32003778 0.031728856 0.045258768
0.38146803 0.030027511 0.046004169
0.32112199 0.03399403 0.04600494
0.37935284 0.034841184 0.04586941
0.38037115 0.032851163 0.046048008
0.32310319 0.037135303 0.046086863
0.32468265 0.039033927 0.045884509
0.37579939 0.039754678 0.046015892
0.3774536 0.037799388 0.04606903
0.32669637 0.041253529 0.045949884
0.32877931 0.043376409 0.046099409
0.37186578 0.04371883 0.045457445
0.37395975 0.041743129 0.046022218
0.33060032 0.045052297 0.046035096
0.33364713 0.046964314 0.04582781
0.36692423 0.047464207 0.046044979
0.37003914 0.045348652 0.046118166
0.33573037 0.04806665 0.0470821
0.33784506 0.048837278 0.045846377
0.34178141 0.050186027 0.04644968
0.34501687 0.050957482 0.045727458
0.36245698 0.049353056 0.045735352
0.36505497 0.048374046 0.045488041
0.33837765 -0.012663205 0.049940199
0.34165385 -0.013858705 0.049996983
0.34466642 -0.014576249 0.050074726
0.35344279 -0.01477133 0.050472751
0.35820943 -0.014027453 0.049945358
0.36187539 -0.01294633 0.050078262
0.36415911 -0.012023348 0.048411235
0.33091682 -0.0086443089 0.050098613
0.33390662 -0.010493625 0.049995922
0.36604601 -0.011039258 0.050007802
0.36941928 -0.0089825429 0.049994487
0.3268334 -0.0050486219 0.049911525
0.32903299 -0.0071517453 0.04997221
0.37152389 -0.0074374443 0.050014053
0.37359491 -0.005537828 0.04988794
0.32337621 -0.00099205016 0.050022043
0.32489854 -0.0029081898 0.050040033
0.37549207 -0.0035073827 0.050258506
0.37721556 -0.0015948093 0.05003402
0.32119933 0.0020282569 0.050037332
0.37920862 0.001130025 0.050049063
0.38040617 0.0030650378 0.049957901
0.31929836 0.0060419287 0.049990851
0.38158736 0.0058945068 0.050038494
0.3179782 0.009996037 0.050053794
0.38280806 0.0098904464 0.050045948
0.31710842 0.013998367 0.049957465
0.3835426 0.013870571 0.050045513
0.31709933 0.017987 0.049955186
0.38380441 0.017688464 0.049797453
0.38405696 0.01812814 0.050145973
0.31750694 0.0219745 0.050005171
0.38363016 0.021922054 0.049963996
0.38402191 0.020244326 0.050369091
0.31819752 0.025975954 0.050009061
0.38289332 0.025856487 0.050028484
0.31938443 0.029906578 0.04994294
0.38164753 0.029871222 0.050009899
0.32100794 0.033926204 0.049983915
0.37948754 0.034886003 0.050015613
0.38044387 0.032920472 0.050033081
0.32300478 0.037180956 0.050068937
0.32471877 0.039264664 0.05001203
0.37593237 0.039791632 0.049663518
0.37760401 0.037840135 0.050026555
0.32671806 0.041470785 0.050090827
0.32858887 0.043386325 0.04985008
0.37188876 0.043898016 0.050208513
0.37396595 0.041990843 0.050136697
0.33044627 0.045136016 0.050096437
0.33360571 0.047162976 0.049803384
0.36736876 0.047459424 0.049949288
0.37014717 0.04550682 0.050024457
0.33581302 0.048335832 0.051397819
0.33785027 0.049062133 0.049873918
0.34164599 0.050344247 0.050204273
0.34519124 0.05123559 0.050011426
0.35976788 0.050748162 0.051959343
0.36238614 0.049669184 0.050402123
0.365657 0.048358429 0.050108381
0.33886367 -0.012659402 0.053626623
0.34117603 -0.013428641 0.05442046
0.34489214 -0.014396836 0.054005072
0.35438845 -0.014428844 0.054202925
0.35837287 -0.013818698 0.053820327
0.36207348 -0.012672679 0.053976249
0.33097401 -0.0084798178 0.054024618
0.33384383 -0.01026047 0.053945947
0.33709916 -0.011896074 0.054154884
0.36352766 -0.011966161 0.055980697
0.3661415 -0.010780431 0.053983908
0.36922047 -0.0088987993 0.053998057
0.32711044 -0.0050701271 0.053974915
0.32914034 -0.0070093274 0.05399948
0.37128577 -0.0073997555 0.054084573
0.37348288 -0.0053936299 0.054014988
0.32339928 -0.0008074267 0.053947974
0.32511032 -0.0029352068 0.054054178
0.37539971 -0.003439921 0.054073256
0.37716705 -0.0014346121 0.054031525
0.32143638 0.0020246347 0.053988319
0.37918451 0.0012969648 0.053971943
0.38038304 0.0032042188 0.053859472
0.31932795 0.0062986659 0.054046161
0.32008606 0.0043534162 0.054054335
0.3815746 0.0060113859 0.054065686
0.31808868 0.010002268 0.053980719
0.38278982 0.0099430308 0.054046314
0.31718764 0.014000162 0.054028254
0.38356087 0.013917838 0.054043788
0.31712946 0.017969908 0.054056644
0.38385278 0.017887244 0.053999856
0.3840867 0.018120946 0.053817112
0.31750932 0.0219595 0.0539684
0.3836922 0.021933805 0.053977754
0.38405749 0.020342292 0.053750563
0.31816864 0.025977023 0.054022867
0.38299555 0.025869807 0.054099388
0.31937039 0.030005176 0.053995661
0.32001457 0.031984046 0.053788155
0.38172802 0.030000364 0.054031391
0.32096061 0.03399922 0.053982023
0.37952262 0.035103686 0.054084331
0.38046125 0.033162873 0.053974133
0.32295597 0.03728262 0.053900372
0.32456726 0.039273404 0.054071456
0.37770349 0.037969064 0.054035947
0.32657412 0.041490957 0.054052513
0.32844013 0.043449502 0.054017283
0.37424901 0.041976001 0.054081012
0.37612218 0.040047847 0.053675618
0.33027026 0.045175843 0.054032113
0.33321068 0.047170192 0.053831238
0.36742872 0.04769076 0.053589791
0.37021321 0.045697734 0.054033633
0.37215519 0.044099461 0.054371119
0.33525616 0.048218641 0.054309811
0.33779186 0.049271349 0.054013219
0.34187436 0.050642524 0.054041054
0.344677 0.051331211 0.053464189
0.36237577 0.049840953 0.053621348
0.36553571 0.048654702 0.054137897
0.33851671 -0.012278804 0.058101479
0.3411752 -0.013195863 0.058003701
0.34501988 -0.014208633 0.057946563
0.35542369 -0.014128984 0.057398796
0.35832098 -0.013555158 0.05809484
0.36167386 -0.01262497 0.058069769
0.3310484 -0.0083317515 0.057824608
0.33390853 -0.010100956 0.058081768
0.33719939 -0.011718499 0.058052
0.36378878 -0.011803864 0.057936355
0.36626178 -0.010522461 0.058038756
0.36930075 -0.0086589055 0.057861764
0.32723352 -0.0049123387 0.057961632
0.32922494 -0.00682915 0.058111258
0.37127507 -0.0072118696 0.058098722
0.37344801 -0.0052337218 0.057913065
0.32341322 -0.00054279517 0.057825055
0.32503119 -0.0025858181 0.058028683
0.37537029 -0.0032318784 0.058147889
0.37714276 -0.0012795599 0.05792493
0.32161114 0.0020853174 0.057983018
0.37917569 0.0014526575 0.058043603
0.3804059 0.0034704667 0.057849538
0.31940445 0.0065404666 0.05796862
0.32025325 0.0044727526 0.058369759
0.38155118 0.0061233663 0.058022596
0.318225 0.010032635 0.05800565
0.38279316 0.010079677 0.058032025
0.3172656 0.014024583 0.058047134
0.38356298 0.013976459 0.05804212
0.3171815 0.017973315 0.058090258
0.38386342 0.017792612 0.057954349
0.38409784 0.017973488 0.058100563
0.31751215 0.021957859 0.057918459
0.38370228 0.022227444 0.057984829
0.38408056 0.020626932 0.058052346
0.31817973 0.026093442 0.058089864
0.38302973 0.026170833 0.058027521
0.31933951 0.030052608 0.058074333
0.38181084 0.030103723 0.058000557
0.32091385 0.034039706 0.057942886
0.37961042 0.035179101 0.057967685
0.38058168 0.0332123 0.058089968
0.32295933 0.037468832 0.058087211
0.32448223 0.039344884 0.057933588
0.3778978 0.037969917 0.058040917
0.32644036 0.041514866 0.057886507
0.32843876 0.043617167 0.058006592
0.37424603 0.042214315 0.058011901
0.37616432 0.040325295 0.058520008
0.330293 0.04538016 0.058082633
0.33318412 0.047367766 0.058103297
0.36768052 0.04779955 0.058132607
0.37023401 0.0459157 0.058012985
0.37221983 0.044285163 0.058682688
0.33523676 0.048390057 0.057735175
0.33783799 0.049512144 0.058133915
0.34164575 0.050802004 0.057835806
0.3451553 0.051657196 0.057150524
0.35991013 0.051165719 0.058609698
0.36217344 0.050215434 0.058085393
0.36594978 0.048720364 0.058101099
0.33858621 -0.012097044 0.061978739
0.34123644 -0.012999443 0.06187259
0.34508786 -0.014016137 0.061873347
0.35290939 -0.014215144 0.063378006
0.35848051 -0.013331468 0.062077317
0.3618156 -0.012384777 0.061743725
0.33145881 -0.008393487 0.062038213
0.33373755 -0.0098086381 0.061996907
0.33683902 -0.011329578 0.062287103
0.36345777 -0.011735784 0.062474448
0.36607727 -0.010428091 0.062052362
0.36894247 -0.0087734796 0.06205171
0.3271457 -0.0045510996 0.062081277
0.32938153 -0.006692721 0.062009614
0.37103939 -0.0072704032 0.061950423
0.37321985 -0.0052506276 0.062008806
0.32364511 -0.00062541716 0.061881587
0.3251096 -0.0024520885 0.062055707
0.375227 -0.003232863 0.062007826
0.3769888 -0.0012748042 0.062002223
0.32193324 0.0018657697 0.061999738
0.37906477 0.0014630909 0.061998256
0.3802903 0.0034017626 0.061722115
0.31953043 0.0066184783 0.061868198
0.3203581 0.0046101678 0.062048998
0.38142198 0.0059764259 0.06196823
0.3184278 0.010017893 0.062074699
0.38275656 0.010096765 0.062039122
0.31747147 0.014002386 0.061969891
0.38355193 0.013993956 0.062048141
0.31724438 0.017976634 0.062064841
0.38386634 0.017568732 0.06202963
0.38409954 0.018190449 0.06206347
0.31751373 0.021978818 0.061918974
0.38378885 0.022202894 0.061996359
0.38410267 0.020887563 0.062252566
0.31815508 0.026047692 0.062022157
0.3831611 0.02607125 0.062032241
0.3192881 0.030023221 0.061993908
0.38200057 0.029939285 0.061975192
0.3208316 0.034006093 0.061946534
0.3796899 0.03531602 0.062055204
0.3806372 0.033384666 0.062063221
0.32283264 0.037465908 0.062114611
0.32448578 0.039523531 0.061881293
0.37813547 0.037909672 0.062045831
0.32649142 0.041747879 0.061962269
0.32829478 0.043624163 0.061676469
0.3745023 0.042233679 0.062058665
0.37630591 0.040288128 0.061719202
0.33006176 0.045336269 0.062022708
0.33279961 0.047355276 0.062210508
0.3700327 0.046299729 0.061970629
0.37241963 0.044361476 0.062047642
0.33487642 0.048436448 0.062087439
0.33797371 0.049781207 0.062132899
0.34185669 0.051101048 0.061849382
0.34474936 0.051846549 0.061800566
0.3615534 0.050705656 0.062182616
0.3664915 0.048674308 0.062121522
0.3459363 0.052023541 0.060508564
0.33862293 -0.012002706 0.064024031
0.34131014 -0.012808905 0.065952018
0.34512272 -0.013809212 0.066031031
0.35387874 -0.013930946 0.066354088
0.35863906 -0.013132653 0.065805882
0.36129016 -0.012355267 0.06639275
0.33156618 -0.0082275951 0.066048175
0.3335731 -0.0094876736 0.066085547
0.3373391 -0.011337752 0.0660346
0.3632459 -0.011679118 0.066058278
0.36587313 -0.010349665 0.065980457
0.36900547 -0.0085833333 0.066020645
0.32745373 -0.0046411264 0.066029601
0.32950562 -0.0065386528 0.065994315
0.3710283 -0.0071580908 0.0660441
0.37326455 -0.0051289988 0.065985039
0.32371339 -0.00050160795 0.065931313
0.3254104 -0.0025507277 0.06605114
0.37523425 -0.0030471906 0.066042043
0.37701803 -0.0010512115 0.066037908
0.32201681 0.0019687009 0.065953389
0.37908757 0.0016655098 0.066020995
0.38029447 0.0035317917 0.065946721
0.31956539 0.0067953924 0.066004537
0.32043067 0.0047562346 0.066162176
0.38134003 0.0058874083 0.066013098
0.31854072 0.010028794 0.065942757
0.38270664 0.009998776 0.066006511
0.31761491 0.014086748 0.065996513
0.38347995 0.014063235 0.065966837
0.31730363 0.017979814 0.065990202
0.38384223 0.017395664 0.066169888
0.38410586 0.018412162 0.065762423
0.3175118 0.021975575 0.065915048
0.38381055 0.022574045 0.065943047
0.38410914 0.021306951 0.06614048
0.31813553 0.026015775 0.066037677
0.38329166 0.025974629 0.066038065
0.31923386 0.02998371 0.066049539
0.38210571 0.029982306 0.066078566
0.31996334 0.0321416 0.065998659
0.32084277 0.03416951 0.065948457
0.37973794 0.035498783 0.0657987
0.38072249 0.033505678 0.065913446
0.32276684 0.037530221 0.065973654
0.32432923 0.039519217 0.065891236
0.37824431 0.038048405 0.066017732
0.32627419 0.041686762 0.066029944
0.32826 0.043764323 0.065920524
0.37447882 0.042504583 0.065897539
0.37638927 0.040513411 0.066213682
0.33009574 0.045530785 0.065992817
0.33287978 0.047607124 0.066306353
0.3679167 0.047919556 0.06428159
0.37019154 0.046404004 0.065977275
0.37256491 0.044438832 0.066236757
0.33489001 0.048642837 0.066155858
0.33785629 0.049931053 0.065954819
0.34155649 0.051248211 0.065910444
0.35990238 0.051505636 0.06583409
0.36236119 0.050591402 0.065423176
0.36684304 0.048763942 0.066271909
0.34465656 0.052074209 0.066152491
0.3413246 -0.012608238 0.07003852
0.34514174 -0.0136032 0.070144184
0.35540965 -0.013553222 0.070193738
0.35839605 -0.013026085 0.07020545
0.3607527 -0.012372433 0.069953702
0.33168402 -0.0080756331 0.069753706
0.33372405 -0.0093142055 0.070182085
0.33746469 -0.011172157 0.069995128
0.36304814 -0.011574239 0.07017681
0.36611581 -0.010052839 0.070009075
0.36878213 -0.0085594738 0.069988482
0.32751647 -0.0044952738 0.069981389
0.32965499 -0.0064172279 0.069991112
0.37083608 -0.0071612755 0.069922276
0.37316802 -0.0051778317 0.070048071
0.32378033 -0.00036976422 0.069936708
0.32551008 -0.0024343994 0.070038632
0.37510642 -0.0030994036 0.069930427
0.37685472 -0.0011132085 0.069992565
0.32213634 0.0020182279 0.069961153
0.37894085 0.0015466076 0.070056438
0.38030779 0.0036081225 0.070291534
0.31959966 0.0069605201 0.06992577
0.32047024 0.0049868505 0.070095055
0.3814438 0.0060197767 0.070044555
0.31864348 0.0099511137 0.069940612
0.38276181 0.010031492 0.070048422
0.31771183 0.014033195 0.070022337
0.38351941 0.014057015 0.069993772
0.31733185 0.017983031 0.069882624
0.38387284 0.017660188 0.069848552
0.38410497 0.018464075 0.070172071
0.31751427 0.022009974 0.069967002
0.38387531 0.022439141 0.069875509
0.3841145 0.021641726 0.070243657
0.3181192 0.026000554 0.069990978
0.38338143 0.025969844 0.07009688
0.31916973 0.029902611 0.069989674
0.3822161 0.029999672 0.069971189
0.31989041 0.032049451 0.069893003
0.32080913 0.034199491 0.070074357
0.37981594 0.035572343 0.069810271
0.3807559 0.033739194 0.070007049
0.32281706 0.037756488 0.070029929
0.32428128 0.039652441 0.070182137
0.37855533 0.037870169 0.070098117
0.32625061 0.041830882 0.070056014
0.32813266 0.043783396 0.069560856
0.37464729 0.042590067 0.070006043
0.37658578 0.04057366 0.070061706
0.3299965 0.045610119 0.070081204
0.33250508 0.047580611 0.069964699
0.37026885 0.046569336 0.070041329
0.37264815 0.044636339 0.069986627
0.33446467 0.048632137 0.070266433
0.33783609 0.050113279 0.06994237
0.34142217 0.051400255 0.069769017
0.36165157 0.051074505 0.069777749
0.36648464 0.049143359 0.070153765
0.36815745 0.048183586 0.070245013
0.34382844 0.052146479 0.071956642
0.34491047 0.052330475 0.070461109
0.34135011 -0.012411318 0.074067585
0.34533277 -0.013418522 0.074121155
0.35835955 -0.01283619 0.074084379
0.36113212 -0.012121566 0.073462121
0.33383057 -0.0091451323 0.074108079
0.33755124 -0.010990111 0.073963486
0.36300194 -0.011415544 0.074020356
0.36622351 -0.0098210396 0.074075401
0.3688654 -0.0083492817 0.073690146
0.3275803 -0.0043474114 0.07398919
0.33000845 -0.0064655533 0.073993064
0.37075919 -0.0070862561 0.07403107
0.37318462 -0.0050765546 0.07401862
0.32368922 -4.7785015e-05 0.073503725
0.32543683 -0.0021159784 0.074062847
0.3751705 -0.0029339516 0.074012019
0.37691382 -0.0010040578 0.074058421
0.32227218 0.0020480677 0.073995434
0.37895375 0.00152207 0.073993981
0.38024303 0.0034603842 0.074000999
0.31959617 0.0072486182 0.073871106
0.32049474 0.0052244025 0.073997028
0.38144907 0.0060103289 0.074019738
0.31871611 0.009978882 0.074040063
0.38277841 0.0099658361 0.073988214
0.31775853 0.01400243 0.074015528
0.38357702 0.013978788 0.073980406
0.38401726 0.015753547 0.074994773
0.31736207 0.017986605 0.074055858
0.38389793 0.017344771 0.074112341
0.38413885 0.018337095 0.073981687
0.31752518 0.022017056 0.074092478
0.38389957 0.022444842 0.074110821
0.38414401 0.021720093 0.073985882
0.3181093 0.025999479 0.074003078
0.38346335 0.026002599 0.073972888
0.38401356 0.024130348 0.074979238
0.31917563 0.030014025 0.074032366
0.38232008 0.030016787 0.073971637
0.31997657 0.032320991 0.07501246
0.32074997 0.03415538 0.073983006
0.37984365 0.035873514 0.073636673
0.38086033 0.033794597 0.074042037
0.32275084 0.037791289 0.07409066
0.32427934 0.039793383 0.073525198
0.37865317 0.038029045 0.074035533
0.32620034 0.041943688 0.074032269
0.32809353 0.043969836 0.075417422
0.37490004 0.042616647 0.074046582
0.37668991 0.04070203 0.074070275
0.32993746 0.04570394 0.074026994
0.33251733 0.047779124 0.073932342
0.37038118 0.04671229 0.074047893
0.3728739 0.044644084 0.07386712
0.33445996 0.048816219 0.074123442
0.33794326 0.050324846 0.073968686
0.34135872 0.051547464 0.074000679
0.36336747 0.050807677 0.074478723
0.36639151 0.049400136 0.074183837
0.36838737 0.048263524 0.073843479
0.34333032 0.052071504 0.072512247
0.344892 0.052529931 0.075227521
0.34229663 -0.012501427 0.077988595
0.3455697 -0.013241142 0.078029864
0.35349163 -0.013377924 0.078718759
0.35809827 -0.012701976 0.077782393
0.36024347 -0.012220527 0.078417309
0.33392462 -0.0089770379 0.077992432
0.33764142 -0.010806894 0.077959932
0.34038612 -0.011908901 0.078102499
0.36263749 -0.011398649 0.077743635
0.36599866 -0.0097707417 0.07804665
0.36856315 -0.008363897 0.078228042
0.32778296 -0.0043511027 0.077632852
0.33011594 -0.006307594 0.078010224
0.37067109 -0.0069739157 0.077950455
0.37298772 -0.0050495332 0.07794226
0.32561985 -0.0020801614 0.078024566
0.37499809 -0.0029672475 0.077996083
0.37693977 -0.00094276934 0.077889659
0.32252741 0.0018998304 0.07798852
0.37901846 0.001633602 0.078104004
0.38025343 0.0035361368 0.078128874
0.31968969 0.0072697168 0.077985972
0.32064119 0.0051450292 0.078050263
0.38143042 0.0060352716 0.078009941
0.31877249 0.0099972645 0.077988416
0.3827644 0.0099858474 0.07800851
0.31781211 0.013848095 0.077988796
0.38361153 0.013872301 0.078122064
0.38404885 0.015569651 0.077903971
0.31738332 0.017989896 0.077992536
0.38391793 0.017191665 0.077845223
0.38416299 0.018408967 0.077973709
0.31754449 0.022040159 0.077933893
0.3839255 0.02267164 0.077725627
0.38416952 0.021725766 0.078093961
0.31810072 0.025956707 0.078088388
0.38353756 0.026068281 0.077994712
0.38404664 0.024164453 0.077979751
0.31919038 0.030106749 0.077957422
0.38243878 0.030025348 0.078012809
0.31993827 0.032286361 0.078045942
0.32075551 0.034223638 0.078031808
0.37992382 0.035768144 0.076707736
0.38091186 0.03394115 0.077953473
0.322671 0.037778839 0.077997178
0.3241013 0.03973515 0.077543281
0.37882191 0.038020343 0.078043394
0.38010183 0.036128126 0.07853362
0.32605854 0.041949023 0.078059517
0.3280201 0.04392767 0.076333195
0.37491271 0.042856675 0.077932768
0.37675825 0.040876206 0.077989154
0.32995966 0.045863442 0.078068361
0.3321636 0.047711898 0.076992005
0.37058681 0.046766732 0.077960104
0.3729538 0.044823062 0.078094818
0.33405897 0.048791889 0.07802961
0.33777282 0.05041663 0.077839121
0.34099689 0.051604915 0.078172848
0.36349064 0.050904684 0.078536339
0.36676013 0.049443863 0.078014925
0.36857632 0.048319682 0.078062125
0.34291875 0.052194469 0.077930965
0.3451345 0.052795988 0.079116017
0.34249139 -0.012338084 0.081954189
0.34588644 -0.013064423 0.082057185
0.35482523 -0.013042728 0.082085639
0.35842156 -0.012428695 0.082297593
0.36048231 -0.012047141 0.080401517
0.33409795 -0.0088538928 0.081848934
0.33777481 -0.010625037 0.082000926
0.34048161 -0.011729815 0.081914894
0.36232671 -0.011326403 0.082133271
0.36598435 -0.0096169347 0.081989631
0.36834049 -0.0083234543 0.081919484
0.32796815 -0.004301657 0.081487104
0.32983324 -0.0058381842 0.08203996
0.3322016 -0.0076532396 0.082436562
0.37052378 -0.0068884576 0.082032062
0.37302762 -0.0048235692 0.081937656
0.32577351 -0.0020199979 0.08199843
0.37493011 -0.0029154152 0.081987962
0.37683317 -0.00097019365 0.08209011
0.32264367 0.001966157 0.081953488
0.37895155 0.0016593338 0.08203245
0.38025242 0.0036966684 0.082165837
0.31973001 0.0074437619 0.081950061
0.32062432 0.0054198354 0.082039453
0.3813436 0.0060125482 0.081966363
0.31882784 0.01002217 0.082009859
0.38274047 0.0099428538 0.08206442
0.31783211 0.01388087 0.082006022
0.3836081 0.013822967 0.082032889
0.3840881 0.015557916 0.08187753
0.31740981 0.017993324 0.082014926
0.38393879 0.016700633 0.081303127
0.38418624 0.018134259 0.082083486
0.31756157 0.022016576 0.082051955
0.3839435 0.023273552 0.081456624
0.38419467 0.021860206 0.082043119
0.31813565 0.026082035 0.081992306
0.38362098 0.026114598 0.082035221
0.38405928 0.024523599 0.082150586
0.31915659 0.030024132 0.081978463
0.38257018 0.029966803 0.081964977
0.31986421 0.032192636 0.081884675
0.32073703 0.03421231 0.081966303
0.37996733 0.035956025 0.081859276
0.3809835 0.03400474 0.08206334
0.32270372 0.037915494 0.081951149
0.32413802 0.039965481 0.082988605
0.37894386 0.038063463 0.081995301
0.38008231 0.036234312 0.081707738
0.32587731 0.041918848 0.08192154
0.37498331 0.043054938 0.081935525
0.37689638 0.040963352 0.082118824
0.32791781 0.044063266 0.083014987
0.32987222 0.045912515 0.081926562
0.33217353 0.047914345 0.08182431
0.3706688 0.046928979 0.081874296
0.37309274 0.044927519 0.082157873
0.33408928 0.048978057 0.082011797
0.33793974 0.050667748 0.081888013
0.34099513 0.051787749 0.082048506
0.36247379 0.051417414 0.080997422
0.36650598 0.049797658 0.082390584
0.36867362 0.048473865 0.082081735
0.3429825 0.052414946 0.082252726
0.34501919 0.052946974 0.082326703
0.3426998 -0.012154459 0.085991502
0.34643841 -0.012906083 0.086115628
0.35595766 -0.012746071 0.08506386
0.35781416 -0.012359614 0.086128004
0.33459887 -0.0088858064 0.086061664
0.33791077 -0.01044487 0.086013712
0.34067178 -0.011541854 0.08606416
0.35956177 -0.011951013 0.087520421
0.36246696 -0.011106688 0.085944228
0.36610669 -0.009388064 0.086027235
0.36836684 -0.0081272274 0.085633166
0.32977128 -0.0055538346 0.085975789
0.33249375 -0.0076476447 0.085963525
0.37044275 -0.0067592044 0.086024009
0.3728725 -0.0048078918 0.086108141
0.32590607 -0.0019350294 0.085990168
0.37480357 -0.0029432231 0.08584056
0.37688217 -0.00081357674 0.086126894
0.32275736 0.0020274178 0.085942954
0.37890184 0.0018224512 0.086025722
0.38017973 0.0037110036 0.085589968
0.31985813 0.0074302 0.085918993
0.32069314 0.0055338638 0.086028636
0.38121834 0.0059714844 0.086038485
0.31894669 0.0099061932 0.086054601
0.38268462 0.0099182157 0.085982069
0.31788075 0.013902136 0.086016156
0.38363779 0.013881037 0.086020015
0.38407901 0.015579401 0.085880801
0.31745195 0.017983651 0.08597935
0.38393748 0.016482994 0.085661665
0.38423395 0.018116193 0.086037815
0.31757921 0.021999942 0.08599031
0.38395461 0.023617646 0.085687317
0.3842462 0.021860061 0.086018816
0.31813806 0.026024709 0.085908614
0.38366467 0.026267214 0.086066343
0.38409376 0.024713488 0.086157888
0.31914353 0.029995752 0.08602193
0.38268948 0.029943811 0.085944794
0.31988269 0.032289788 0.085900612
0.32074478 0.034274552 0.086001933
0.38110888 0.033938546 0.086004287
0.32269818 0.037992597 0.085999168
0.32404286 0.039897468 0.084678344
0.37900543 0.038179763 0.085923091
0.38013908 0.036242113 0.086549379
0.32585651 0.042069133 0.086051263
0.37518623 0.04309687 0.085952155
0.37696248 0.041151285 0.086079322
0.32790399 0.044226557 0.086867727
0.32992131 0.046078984 0.085945636
0.37077528 0.04705831 0.085902788
0.3732616 0.045009289 0.086127132
0.33375549 0.048941191 0.086065248
0.3378157 0.05083023 0.086036801
0.34043798 0.051822174 0.086549133
0.36347714 0.051433731 0.086744942
0.36652344 0.049998734 0.08633817
0.36877334 0.048623089 0.086177215
0.34242213 0.052416876 0.085746042
0.34518972 0.053180769 0.086313091
0.34285364 -0.012026019 0.088828936
0.34741667 -0.012810506 0.089636385
0.34811026 -0.012768733 0.091604292
0.35313469 -0.012759377 0.091449596
0.35729289 -0.012258125 0.090227619
0.33471292 -0.0087112114 0.08996179
0.33804736 -0.010266536 0.089985967
0.34169325 -0.011590714 0.090223163
0.35983005 -0.011779082 0.089419663
0.36206383 -0.011055656 0.090121277
0.36610848 -0.0092018042 0.089994662
0.32997191 -0.0054892879 0.089921452
0.33261982 -0.0074793845 0.090027817
0.37012681 -0.0067610363 0.089984588
0.37282923 -0.0047204401 0.089962147
0.32607532 -0.0018865813 0.08994367
0.32822916 -0.0039604749 0.090826713
0.37484834 -0.0027905486 0.089957193
0.37669539 -0.00090039085 0.090055443
0.32271242 0.0023208736 0.089967497
0.32416162 0.00030244651 0.090024292
0.37874568 0.0019104762 0.09003526
0.38006076 0.0037061593 0.08933863
0.31987551 0.0076682451 0.090003967
0.32071829 0.0057588089 0.090093277
0.37998736 0.0042276871 0.091164052
0.38109362 0.0059546265 0.089957871
0.3190226 0.0099388119 0.090056211
0.38269418 0.010022364 0.089976117
0.31795257 0.013969203 0.089980341
0.38364762 0.013809836 0.089982025
0.38407803 0.015529454 0.090118907
0.31752715 0.018007314 0.090001985
0.38394287 0.016270915 0.089603283
0.38423675 0.018094363 0.090009108
0.31760386 0.022010811 0.089984171
0.38397843 0.023870416 0.088692844
0.38428721 0.021987317 0.090068363
0.31815067 0.025994217 0.090009123
0.38369742 0.026408374 0.090003677
0.38412097 0.024775214 0.089992002
0.31913617 0.029972319 0.089937411
0.38276118 0.030061541 0.089992732
0.31986871 0.032316398 0.090004049
0.32073522 0.034314994 0.089935541
0.38119236 0.034056753 0.0900684
0.32263401 0.037975296 0.089982584
0.3791483 0.038233593 0.089981876
0.38017851 0.036406387 0.09003181
0.3255854 0.041928153 0.089972883
0.37529939 0.043235943 0.089755706
0.37709537 0.041240286 0.090016186
0.32769087 0.044200063 0.090329565
0.32996708 0.04623704 0.090034045
0.33202994 0.04798783 0.088848092
0.37095606 0.047134716 0.090005115
0.37339887 0.045119788 0.090187602
0.33395281 0.049190376 0.089889079
0.33783454 0.051049162 0.089997761
0.34003207 0.051783457 0.088530526
0.36321551 0.051661626 0.090017155
0.36650917 0.050196923 0.090151779
0.36902472 0.04864591 0.090105526
0.34201851 0.052513994 0.090158939
0.34540784 0.053405419 0.090160117
0.36194077 0.0522222 0.091792218
0.34826532 -0.012731642 0.092618465
0.35523579 -0.012364097 0.095126972
0.35787159 -0.012035973 0.092609495
0.33494726 -0.008579459 0.093983904
0.33815384 -0.010062628 0.094030693
0.34218824 -0.011490446 0.094015174
0.35838869 -0.011849269 0.094555937
0.3621136 -0.010833286 0.094036095
0.36602131 -0.0090738283 0.093903832
0.36800277 -0.0080206525 0.093366303
0.3302139 -0.0054446924 0.093997441
0.33291698 -0.0074002631 0.094196148
0.36786953 -0.0079042213 0.09490066
0.37009007 -0.0065840404 0.094002672
0.37274495 -0.0046978816 0.094041198
0.3262696 -0.0018461944 0.093984097
0.32831806 -0.0038439604 0.094024621
0.37479237 -0.0027632334 0.09393543
0.37670961 -0.00071085035 0.094003975
0.32276383 0.0024843323 0.093892574
0.32432023 0.00034941817 0.093997478
0.37865394 0.002024611 0.093966745
0.38002694 0.0039506028 0.095379286
0.31992725 0.0077419006 0.093992718
0.32080844 0.0058272304 0.093973115
0.37997937 0.0043007531 0.09302783
0.38114518 0.0061428128 0.094055772
0.319143 0.0098937647 0.09396363
0.38270423 0.010068054 0.093984522
0.31807652 0.013977694 0.09400139
0.38363209 0.013758685 0.094069451
0.38407782 0.015502457 0.093887955
0.31762204 0.018003473 0.094006747
0.38397491 0.016285913 0.093977563
0.3842597 0.018094454 0.093969136
0.31763908 0.021995559 0.094000876
0.38433182 0.021972008 0.094041698
0.31817821 0.026012378 0.093999498
0.38373479 0.026633931 0.093855456
0.38413873 0.024778968 0.094022952
0.31917715 0.030082135 0.094052054
0.38290432 0.029945226 0.094002873
0.31988615 0.032317564 0.094005279
0.32068449 0.034200925 0.094068058
0.38137156 0.033939775 0.094045825
0.32264394 0.038011469 0.094036236
0.37915066 0.038478922 0.093950629
0.38025224 0.036496684 0.094069302
0.32396832 0.040025748 0.092431709
0.32563257 0.042110991 0.094048642
0.37543324 0.04337047 0.093976766
0.37715903 0.041400071 0.094034083
0.32769433 0.044343241 0.093667105
0.3298147 0.046274204 0.093975127
0.3710871 0.047204491 0.094244339
0.37347832 0.045253161 0.09400057
0.33187231 0.048072662 0.095414147
0.33384839 0.049288835 0.093999565
0.33776337 0.051250566 0.094037995
0.36363319 0.051795855 0.095253259
0.36616486 0.050462335 0.093915693
0.3691138 0.04867661 0.09405528
0.34172598 0.052633949 0.094034478
0.34488267 0.053487547 0.093968518
0.34813881 -0.012324281 0.097348653
0.35574177 -0.012135319 0.097558327
0.3560026 -0.01205342 0.098436289
0.33524406 -0.0083871447 0.097957067
0.33786216 -0.0096216872 0.097939596
0.34189257 -0.011115715 0.098028079
0.34422243 -0.011619559 0.099271834
0.35871774 -0.011578124 0.09839005
0.36244634 -0.010523071 0.097954333
0.3660537 -0.0088679269 0.097997569
0.33034554 -0.0052961181 0.09799923
0.33339807 -0.0074002212 0.097991467
0.36792198 -0.0076966323 0.09767136
0.36997154 -0.0064565367 0.098007083
0.37268713 -0.004567368 0.097867459
0.32637614 -0.0016725423 0.09797813
0.32839355 -0.0036430086 0.098195091
0.37473762 -0.0026893571 0.0981704
0.37653324 -0.00072347641 0.09794838
0.3229765 0.0024844594 0.097930774
0.32438797 0.00057553977 0.098205797
0.37850261 0.0019109827 0.098036565
0.31996819 0.0077998322 0.097130083
0.32095292 0.0059008249 0.098068044
0.37990347 0.0040521002 0.097811334
0.38108912 0.0060284105 0.097970806
0.31928378 0.0099268565 0.098029062
0.38266718 0.0099749761 0.098040313
0.31826162 0.014055325 0.098027848
0.38360798 0.013824367 0.098056659
0.3840875 0.01570889 0.097989202
0.31771299 0.01801634 0.098017581
0.38397601 0.016300319 0.098186217
0.38426793 0.018032996 0.098018989
0.31768695 0.021980725 0.098018736
0.38439032 0.021965133 0.097953796
0.31824002 0.026015295 0.09799353
0.38379204 0.026805617 0.097930461
0.38417396 0.02502807 0.098099321
0.31923211 0.030088346 0.098027334
0.383012 0.029972432 0.098072037
0.31993899 0.03222264 0.098012842
0.32081988 0.034364626 0.098015055
0.38141757 0.034075107 0.09802486
0.3226971 0.038087901 0.097929642
0.37916699 0.038584858 0.098058507
0.38027483 0.036611143 0.097866625
0.32398742 0.040179789 0.099358231
0.3255648 0.042099398 0.097961679
0.37546504 0.043484222 0.098183826
0.37718573 0.041461736 0.098020576
0.32761696 0.044404253 0.098186851
0.32976797 0.046413101 0.098019019
0.37094724 0.047225714 0.098035917
0.37360233 0.045205638 0.097887017
0.33183804 0.048118323 0.097801104
0.33372301 0.049375575 0.098009162
0.33746484 0.051335007 0.098218143
0.36368856 0.051881958 0.098765671
0.3663362 0.050409902 0.098166235
0.3689594 0.048639357 0.097928859
0.33951449 0.052111238 0.097459562
0.34201515 0.052869476 0.098090559
0.34494653 0.05362238 0.097787768
0.36251676 0.052335672 0.098305404
0.33571509 -0.0082505513 0.10174239
0.33797222 -0.0091982288 0.10217799
0.34171149 -0.010639378 0.10189881
0.3453092 -0.011562979 0.10207842
0.35596338 -0.011908053 0.10007568
0.35810879 -0.011404058 0.10205856
0.36223337 -0.010360881 0.10213199
0.36552605 -0.0089189475 0.10203002
0.33036342 -0.0050513721 0.1018371
0.33342144 -0.0070401491 0.10207283
0.36752969 -0.0077217929 0.10187583
0.37013507 -0.0060389671 0.10205081
0.37244481 -0.0043758103 0.1019033
0.32642901 -0.0013719071 0.102015
0.32849219 -0.0034508388 0.10220426
0.37446791 -0.0025724347 0.10208312
0.37651056 -0.00053214608 0.10209628
0.3230792 0.0027550925 0.10196602
0.32449922 0.00084862649 0.10211392
0.37847364 0.0020413019 0.10209049
0.32112861 0.0060860617 0.10202572
0.37987739 0.0042846142 0.10251343
0.38103715 0.0060447725 0.10203899
0.31942451 0.010301787 0.10190472
0.32014447 0.008525148 0.10280901
0.38261589 0.0099495286 0.10201833
0.31853646 0.014006711 0.10198674
0.38359869 0.013886599 0.10201913
0.38407809 0.015709948 0.10186583
0.31790593 0.017991977 0.10201746
0.38394642 0.016385971 0.10237906
0.38428822 0.018144088 0.10200435
0.31779525 0.022047011 0.1020257
0.38441807 0.021992013 0.102028
0.31830928 0.025854686 0.10196055
0.38382679 0.026977316 0.10214441
0.38418621 0.025268946 0.10208137
0.31935015 0.030057507 0.10200036
0.38306311 0.030050794 0.10203655
0.31998265 0.032149512 0.10110057
0.32080951 0.034158804 0.10209521
0.38148487 0.033971336 0.10201286
0.32269734 0.037985805 0.10199999
0.37910473 0.038451277 0.10211416
0.38030687 0.036529869 0.10192361
0.32399094 0.040143736 0.10029837
0.32555661 0.041993182 0.1020233
0.37540308 0.043276653 0.10219737
0.37714583 0.041306529 0.10204782
0.32754138 0.04431209 0.10171469
0.32966304 0.046297643 0.10199919
0.37083769 0.047134846 0.10200091
0.37362882 0.045053441 0.10230848
0.33185926 0.048160061 0.10199627
0.33385578 0.049535137 0.10201047
0.33749697 0.051309999 0.10213626
0.36312386 0.051908251 0.10302735
0.36612198 0.050442137 0.1020477
0.36878955 0.048607823 0.10207487
0.33980301 0.052198112 0.10289633
0.34136534 0.052690011 0.10198389
0.3458378 0.05380787 0.10256793
0.35037011 0.054274876 0.10305283
0.35346341 0.054114413 0.10341353
0.35840851 0.053435318 0.10233106
0.36136386 0.052600853 0.10232191
0.3515878 -0.01201491 0.10571674
0.35227606 -0.012007806 0.10556237
0.33796218 -0.0086681852 0.10602365
0.34184784 -0.010086751 0.10614467
0.34591502 -0.011128044 0.10647597
0.34950274 -0.011593805 0.10723288
0.35381478 -0.011487381 0.1069198
0.35784939 -0.010948735 0.1066463
0.36238554 -0.0098508336 0.10671583
0.36510783 -0.0086952653 0.1060957
0.33085832 -0.0048826132 0.10598002
0.33394897 -0.0066508227 0.10621498
0.33656564 -0.007698596 0.10724581
0.36706963 -0.0074081249 0.10673455
0.3700113 -0.0055837729 0.10605409
0.37241986 -0.0040251315 0.10439508
0.32696864 -0.0012526247 0.10579942
0.32895926 -0.0031753369 0.10625716
0.37195069 -0.0038110155 0.10784256
0.37427118 -0.0020036064 0.10630342
0.37635821 -0.00032682059 0.10492576
0.32341275 0.0031523025 0.10567197
0.32497835 0.0012526234 0.10627362
0.37585661 0.00011343512 0.10754434
0.37781674 0.0020585931 0.10621199
0.32185781 0.0059721703 0.1060862
0.37956274 0.0048736767 0.10681447
0.38084137 0.0065971268 0.10603157
0.3197042 0.011101144 0.10546586
0.32043126 0.0094238697 0.10641751
0.38221842 0.0099644056 0.10630333
0.31905806 0.014039026 0.10599933
0.38327569 0.013987046 0.10631581
0.38404971 0.015679931 0.1046025
0.31843373 0.018007537 0.10605257
0.38370106 0.01782129 0.1068776
0.3841863 0.018346433 0.10523023
0.31831843 0.022041027 0.10599843
0.38373581 0.022096239 0.10706329
0.38423014 0.021899324 0.10530966
0.31876114 0.026034554 0.10608827
0.3834551 0.026207874 0.10641391
0.38409802 0.025080316 0.10472759
0.31951579 0.029593468 0.10571604
0.32029045 0.031088846 0.10685492
0.38257676 0.029978722 0.10611808
0.32125574 0.03399244 0.10602351
0.37980834 0.035679001 0.10713242
0.38112321 0.033812266 0.10606617
0.32300439 0.037656963 0.10587703
0.32436383 0.039505836 0.10677217
0.37858057 0.038140681 0.10625318
0.3802571 0.036283277 0.10466219
0.32615459 0.042042933 0.10610254
0.32824096 0.043853275 0.10757227
0.3748931 0.042745445 0.10645861
0.37665948 0.040877376 0.10590033
0.32796851 0.044390816 0.10426518
0.3299104 0.045893211 0.10605988
0.33256966 0.047454245 0.10745727
0.37062475 0.046794891 0.10660541
0.37296432 0.044896077 0.10607564
0.3318913 0.048032861 0.10455352
0.33410972 0.048980329 0.10606268
0.33807707 0.050816562 0.10634106
0.34105113 0.051698729 0.10729197
0.36277562 0.051418539 0.10643749
0.36599419 0.049989786 0.10638437
0.36860722 0.048468489 0.10606955
0.34244457 0.052499861 0.10589179
0.34599191 0.053027473 0.10664919
0.3499715 0.053365752 0.10698039
0.35401538 0.053346362 0.1064023
0.35791272 0.052785277 0.10623908
0.36093816 0.052222531 0.10560689
0.33923468 -0.0083361967 0.109051
0.34216166 -0.0089447815 0.11014388
0.34591776 -0.0098913889 0.1103051
0.35000783 -0.01043159 0.11037542
0.35395202 -0.010191941 0.11046179
0.35807702 -0.0095852194 0.11026176
0.36177036 -0.0088366522 0.10974611
0.36440408 -0.0082354508 0.10882912
0.33148527 -0.0044438406 0.10856452
0.3340928 -0.0052992837 0.1100759
0.33772495 -0.0070351302 0.11038064
0.34049872 -0.0077140918 0.11157513
0.36277455 -0.0075367712 0.11135285
0.36616224 -0.0065222136 0.11024441
0.36925969 -0.0048452853 0.1097572
0.32751164 -0.00064717367 0.10890918
0.32992274 -0.0022373179 0.11014156
0.3325837 -0.0035945044 0.11144
0.37096015 -0.0030775515 0.11060265
0.37330806 -0.0014397402 0.10978109
0.32389465 0.0038000767 0.10835849
0.3260439 0.002037578 0.11001424
0.32831183 0.00035628944 0.1114608
0.37507245 0.0011182504 0.1106709
0.3768931 0.0027681026 0.109578
0.3229804 0.0063898545 0.10972503
0.32451856 0.0049053966 0.11094876
0.37856999 0.0059063733 0.11018021
0.38034064 0.0075166677 0.10872587
0.31996897 0.011999309 0.1080096
0.3214159 0.0099769495 0.11004683
0.37959021 0.0091244346 0.11134578
0.38091323 0.010260275 0.10969844
0.31968021 0.014528873 0.10889392
0.32049844 0.013597661 0.11060123
0.3817524 0.013996907 0.11007898
0.31942812 0.018024158 0.1094767
0.3202301 0.017757524 0.11150284
0.38239446 0.017988257 0.11003806
0.31936923 0.022048751 0.1095037
0.32020944 0.02222169 0.11156499
0.38244331 0.022020545 0.11009456
0.31957933 0.025726495 0.10909571
0.32046372 0.026279241 0.11097078
0.38200554 0.0260108 0.11003655
0.31985864 0.028663019 0.10821474
0.32117248 0.030004831 0.11019444
0.37967172 0.031262696 0.11144653
0.38109717 0.029863762 0.10983051
0.32260385 0.03389252 0.10988211
0.32415608 0.035411045 0.11157641
0.37893602 0.034310143 0.11038426
0.38042581 0.03315185 0.10878607
0.32358879 0.0368957 0.10889025
0.32519132 0.038346514 0.11033793
0.37535799 0.039161436 0.11113419
0.37730667 0.037679069 0.10977366
0.32695499 0.041219842 0.10971113
0.32915932 0.04300997 0.11048132
0.3714917 0.043450635 0.11129799
0.37388012 0.041846469 0.10992923
0.37622675 0.040214788 0.10840324
0.33073753 0.045050517 0.10951599
0.33357108 0.04660989 0.11039005
0.33636016 0.047667488 0.11155529
0.36692914 0.047375455 0.11112557
0.36991051 0.045800865 0.11002182
0.37237301 0.044299144 0.10877203
0.33516666 0.048381325 0.10894565
0.33797953 0.049257871 0.11007681
0.34199676 0.050716884 0.11009098
0.34564885 0.051289864 0.11064696
0.34984523 0.051559497 0.11114705
0.3540763 0.051548097 0.11090656
0.35814974 0.051175602 0.11043358
0.36206526 0.050219733 0.1101633
0.36567545 0.048870236 0.10971688
0.36815721 0.048125714 0.10834412
0.34635594 0.052230071 0.10887302
0.34995407 0.052524097 0.10905901
0.35398266 0.052409921 0.10898688
0.35718435 0.052167073 0.1086448
0.34349084 -0.0083004804 0.11240502
0.34625822 -0.0085777445 0.1129452
0.34997758 -0.0087589901 0.11332889
0.3539013 -0.0086754337 0.11306611
0.35767379 -0.0083626425 0.11256949
0.33536267 -0.0045297001 0.11274412
0.33823216 -0.005342768 0.11382186
0.34192356 -0.0066046882 0.11426478
0.34579632 -0.007219824 0.1148729
0.34997806 -0.0074926349 0.11522043
0.35417259 -0.0073672472 0.11501424
0.35811639 -0.0070578754 0.11441317
0.36202678 -0.0060862722 0.11398342
0.36563039 -0.0049524861 0.11316948
0.36824238 -0.0040691784 0.11221377
0.33092263 -0.0010382551 0.113091
0.33378452 -0.0024243221 0.11423124
0.33669347 -0.0034847304 0.11534184
0.36363366 -0.0039101564 0.11593723
0.36649391 -0.0030950222 0.11490609
0.3698085 -0.0016737798 0.11371833
0.37247381 -0.00039700393 0.11248556
0.32724389 0.0030620433 0.11309217
0.32954347 0.0015198714 0.11439253
0.33218944 1.7645094e-05 0.1157557
0.37118715 0.00088140578 0.11520538
0.37364215 0.0022397751 0.11380608
0.37611327 0.003845758 0.1121541
0.32365337 0.0076718642 0.11250732
0.32587996 0.0060021128 0.11408561
0.32820046 0.0044747605 0.11581013
0.37515432 0.0052638096 0.11489965
0.37698171 0.0064972467 0.11340486
0.32303569 0.010355144 0.11351202
0.32458442 0.0093084229 0.11509383
0.37827832 0.0099302912 0.11405813
0.38006851 0.011607517 0.11234329
0.32219017 0.013950293 0.11402547
0.37918893 0.013734287 0.11458405
0.38044038 0.01442461 0.11273466
0.32153854 0.018007081 0.11403253
0.37945834 0.017873958 0.11519219
0.38067132 0.017957103 0.1131947
0.32148066 0.021973364 0.11399067
0.37956172 0.022053285 0.11518434
0.38068658 0.021983605 0.1132463
0.3220568 0.026033131 0.11402173
0.37927085 0.026177187 0.11476764
0.38050798 0.02567335 0.1128513
0.32299814 0.029760912 0.11380717
0.32433337 0.031073721 0.11533112
0.37871104 0.030035287 0.11397521
0.38020131 0.028602522 0.11235354
0.32358918 0.032801528 0.11272794
0.32510665 0.034196548 0.11427043
0.37560382 0.035337072 0.11521681
0.37728772 0.033745833 0.11371293
0.32675594 0.037625797 0.11367886
0.32884365 0.039158747 0.11490857
0.37198797 0.039738957 0.11592109
0.37429306 0.038221963 0.11403691
0.37640375 0.036536518 0.11257717
0.32764122 0.040316999 0.1121905
0.3303239 0.041810356 0.11366314
0.33288363 0.043295462 0.11486486
0.36785832 0.04365379 0.11575439
0.37041381 0.042438187 0.11412534
0.37267116 0.040843174 0.11308948
0.33163071 0.044349231 0.1120023
0.33437493 0.045301072 0.11362045
0.33771729 0.047013596 0.1141176
0.3409588 0.047724392 0.11525828
0.3627421 0.04743683 0.11465262
0.36611453 0.046053536 0.11382504
0.36879036 0.044755366 0.11293174
0.33893535 0.048393082 0.11261857
0.34214458 0.048997391 0.11349728
0.34599686 0.049952291 0.11356197
0.35005027 0.050515909 0.11325403
0.35412273 0.050280437 0.11355229
0.3580668 0.049495887 0.11366245
0.3615517 0.048779599 0.1131176
0.3641623 0.04836034 0.11203301
0.3396053 -0.0043094037 0.11620267
0.3424004 -0.0048133335 0.11691673
0.34605071 -0.0055487975 0.11733619
0.35005644 -0.0060344404 0.11737966
0.35403383 -0.0058350773 0.11741316
0.35804769 -0.005209872 0.11745857
0.36113894 -0.0046328017 0.11670593
0.33472064 -0.00079210149 0.11735424
0.33786857 -0.0023671582 0.11775216
0.34142983 -0.0035097629 0.1184078
0.36243477 -0.0033024666 0.11789869
0.36587659 -0.0016375663 0.117419
0.36845994 -0.00045312042 0.11641494
0.33080363 0.0028019776 0.11740289
0.33314443 0.0011202835 0.11826272
0.36755317 0.00027014711 0.11885148
0.37019655 0.0018466698 0.11774985
0.3724359 0.0034526109 0.11678925
0.32732561 0.0070323697 0.11708952
0.32909933 0.0054475819 0.11815793
0.3719334 0.0043887091 0.11951477
0.37388659 0.0059907818 0.11768216
0.32594448 0.0099825095 0.11778468
0.37544623 0.009073087 0.11832651
0.37667656 0.010578824 0.11720308
0.32363716 0.014474421 0.11659499
0.32470909 0.013680006 0.11827608
0.37762302 0.01398568 0.11765242
0.32337138 0.018207835 0.11730672
0.32414994 0.017309012 0.11913098
0.37836635 0.017972659 0.11768133
0.32343021 0.02187247 0.11769381
0.32403553 0.023792058 0.11961865
0.37858963 0.02199774 0.11771083
0.32358643 0.025694689 0.11688707
0.32429212 0.026342919 0.11868488
