# .PCD v0.7 - Point Cloud Data file format
VERSION 0.7
FIELDS x y z
SIZE 4 4 4
TYPE F F F
COUNT 1 1 1
WIDTH 1329
HEIGHT 1
VIEWPOINT 0 0 0 1 0 0 0
POINTS 1329
DATA ascii
0.42199799 -0.014006163 0.0023464519
0.42602262 -0.013981962 0.0023459939
0.43002576 -0.014016943 0.0023469599
0.43401566 -0.013991686 0.0023456542
0.43794096 -0.014091319 0.0023465659
0.44198349 -0.014051711 0.0023468432
0.4461174 -0.014038349 0.0023459145
0.45003918 -0.014038312 0.0023464246
0.45405313 -0.013987474 0.002346789
0.45805097 -0.013932807 0.0023462567
0.46191433 -0.013960659 0.0023459783
0.4658066 -0.013964019 0.0027497481
0.33182034 -0.0093049789 0.0037454583
0.33385232 -0.010016066 0.0026472148
0.33796111 -0.0099547291 0.0023479143
0.34192264 -0.009927744 0.0023478586
0.34598389 -0.0099652791 0.0023478284
0.35012272 -0.0099959476 0.0023470409
0.35397875 -0.0099913292 0.0023453741
0.35797721 -0.0099735158 0.0023460479
0.36200243 -0.0099725127 0.0023457338
0.36606863 -0.0099579776 0.0023459496
0.36993462 -0.0099354526 0.002345796
0.37389103 -0.01003106 0.0023460386
0.37789747 -0.010014969 0.0023452588
0.3819181 -0.01001607 0.0023464898
0.38590896 -0.0099769793 0.0023465429
0.38988125 -0.0099739498 0.0023448255
0.39391205 -0.0099878414 0.0023468318
0.39799148 -0.010023511 0.0023463569
0.40201825 -0.010041579 0.0023465178
0.40598062 -0.010000654 0.0023446707
0.40993133 -0.009998098 0.0023465825
0.41396111 -0.009946702 0.0023462048
0.41797307 -0.0099814041 0.0023464821
0.42194334 -0.010041687 0.002345901
0.42599913 -0.010054954 0.0023458258
0.43001559 -0.010026291 0.0023465876
0.434048 -0.01000099 0.0023453471
0.43796369 -0.010062351 0.0023466093
0.44185525 -0.0099963956 0.0023469301
0.44597527 -0.01004202 0.0023464968
0.45004231 -0.010013266 0.0023463939
0.45399711 -0.0099471202 0.0023463143
0.45799845 -0.0099862749 0.0023479031
0.46188992 -0.010007056 0.002347914
0.46601197 -0.0099310651 0.0026497322
0.46818328 -0.0087918434 0.0038753613
0.33162257 -0.0057117739 0.0035918818
0.33392212 -0.0059827217 0.0024610455
0.33790913 -0.0059708986 0.0023487569
0.3419317 -0.0059774029 0.0023492463
0.34603634 -0.0060311053 0.0023486374
0.35009772 -0.0060221823 0.0023476072
0.35398993 -0.0059840749 0.0023465878
0.35798728 -0.0059506474 0.002346603
0.36199215 -0.005969842 0.0023459771
0.36601925 -0.0059381188 0.0023474949
0.36995202 -0.0059329127 0.0023461187
0.3739171 -0.0060243323 0.0023471743
0.3778998 -0.0060250349 0.0023462707
0.38183466 -0.0060155513 0.0023479818
0.38588512 -0.005960898 0.0023475345
0.38989782 -0.0060153548 0.0023465101
0.39390895 -0.0059117326 0.0023473108
0.3980056 -0.0059748129 0.0023466649
0.40199643 -0.0060371831 0.0023479087
0.40596527 -0.005994047 0.0023468931
0.40989649 -0.0060062292 0.0023472221
0.4139483 -0.0060291891 0.0023461143
0.41801572 -0.0059922826 0.0023475459
0.42199534 -0.0060022194 0.0023477592
0.42593962 -0.0060149552 0.0023466463
0.4299469 -0.0060044131 0.0023487594
0.43402213 -0.0060441699 0.0023475906
0.43793425 -0.0059880726 0.0023476968
0.44189927 -0.0059575438 0.0023462311
0.44605437 -0.0060125333 0.002347457
0.45002037 -0.0060022729 0.002348623
0.45403802 -0.0059849764 0.0023474095
0.45803455 -0.0059935912 0.0023472065
0.46190873 -0.0060682893 0.0023483443
0.46603593 -0.0060072821 0.0024805141
0.4683221 -0.0057754298 0.0035998744
0.33145651 -0.0019745887 0.0033145074
0.3340095 -0.0020402602 0.0023625772
0.337937 -0.0020288057 0.0023485404
0.34190863 -0.0021199856 0.002349888
0.34602347 -0.0020483406 0.0023495643
0.35010281 -0.0020333114 0.0023482528
0.35399064 -0.0020072709 0.0023465466
0.35796762 -0.0020323214 0.0023472866
0.36203456 -0.0019580587 0.0023469764
0.36606014 -0.001917162 0.0023465473
0.36992666 -0.0019262887 0.0023462684
0.37389937 -0.0020495991 0.0023480766
0.37791163 -0.0019856594 0.002346341
0.38190308 -0.0019982136 0.0023468782
0.38589826 -0.001994665 0.0023467129
0.38989511 -0.0020202098 0.0023470551
0.3939051 -0.0019132482 0.0023477101
0.39801562 -0.0019596696 0.0023461685
0.4020479 -0.0019971675 0.0023474107
0.40596032 -0.0020201774 0.0023461927
0.40990686 -0.0019668322 0.0023479778
0.41396415 -0.0020446596 0.0023461496
0.41798502 -0.002020831 0.0023485676
0.42199117 -0.0019960683 0.0023474116
0.42594907 -0.0019655165 0.0023465506
0.42996821 -0.0019429963 0.002347237
0.43401077 -0.0019990192 0.0023470812
0.43796265 -0.0020010113 0.0023472742
0.44191033 -0.0019879497 0.0023478549
0.44597188 -0.0019671095 0.0023470693
0.4500168 -0.0020207795 0.0023468919
0.4540427 -0.0020189639 0.0023473084
0.45805019 -0.0020123718 0.0023488295
0.4618904 -0.0020440528 0.0023472407
0.46603209 -0.0020548862 0.0023848002
0.46864986 -0.0018674599 0.0034060304
0.33138806 0.0018578934 0.0032609452
0.33398652 0.0019023 0.0023563232
0.33795133 0.0019422602 0.0023493832
0.34196332 0.0019026616 0.0023495983
0.34600097 0.0019459939 0.0023499343
0.35009977 0.0019992639 0.0023485944
0.35399863 0.0020035272 0.0023465913
0.35798165 0.002005568 0.0023470989
0.36198422 0.0020414409 0.00234702
0.36603904 0.0020720076 0.0023479718
0.36994946 0.002094375 0.0023473902
0.37388983 0.0019504965 0.0023475655
0.37787461 0.0019636308 0.0023473124
0.38188002 0.0019803173 0.0023488214
0.38590637 0.0020056444 0.0023491406
0.38988858 0.0020248066 0.0023470297
0.39389509 0.0020250652 0.0023479578
0.39799607 0.0020204855 0.0023482661
0.40201443 0.0020479967 0.0023489518
0.40595925 0.002020414 0.0023471746
0.40992895 0.00206625 0.0023488502
0.41393611 0.0020470424 0.0023480665
0.41796917 0.0020444058 0.0023483485
0.42192802 0.0019944434 0.0023478884
0.42597109 0.0019594152 0.0023483902
0.4299759 0.0019929013 0.0023492549
0.43404114 0.0020207318 0.0023478074
0.43793881 0.001993174 0.0023475692
0.44187427 0.0020131606 0.0023488423
0.4460274 0.0020293011 0.0023485082
0.45002875 0.0019531306 0.0023482002
0.45401856 0.0019567746 0.0023489476
0.45798382 0.0019779552 0.0023493846
0.46189383 0.0020508419 0.0023488626
0.46603066 0.0019986678 0.0024029743
0.46856305 0.0017992585 0.0034475031
0.33163738 0.0057670083 0.0035367445
0.33395448 0.0060060457 0.0024500629
0.33793628 0.0059801848 0.002350738
0.34192273 0.0060252943 0.0023514745
0.34604061 0.0060242307 0.0023503241
0.35011145 0.0059615364 0.0023492682
0.35397837 0.0059900139 0.0023481944
0.35797939 0.0060390895 0.0023487934
0.36201394 0.0060529034 0.002347291
0.366045 0.0060074674 0.0023482169
0.36992636 0.0060204123 0.0023482644
0.37389371 0.0059512532 0.0023488847
0.37788352 0.0058947774 0.0023479245
0.38185188 0.0059237736 0.0023486149
0.38589886 0.0059202863 0.0023486626
0.38987392 0.0059770471 0.0023480139
0.39392778 0.0059821885 0.002348735
0.39801311 0.005961726 0.0023482863
0.40201673 0.0059776413 0.0023486686
0.40597644 0.005966804 0.002347335
0.40992451 0.0060288971 0.002348572
0.41398698 0.0060592885 0.0023477587
0.41801897 0.0060712709 0.0023484163
0.42200944 0.0060410886 0.0023481299
0.4259294 0.005987287 0.0023478593
0.4299421 0.0059768944 0.002349034
0.43401426 0.0060165967 0.0023478372
0.4379673 0.0060152374 0.002348945
0.44189289 0.0060111997 0.0023485275
0.44601366 0.005996339 0.0023483408
0.45006195 0.0059672086 0.0023483131
0.4540627 0.0060003512 0.0023477986
0.45805535 0.0060256999 0.0023489073
0.46190491 0.0060182358 0.0023487133
0.46600536 0.0060560959 0.0025003969
0.46827659 0.0057460759 0.0036158715
0.33177373 0.0090830009 0.0038250401
0.33388448 0.010016101 0.0026462481
0.33794069 0.010031599 0.0023500149
0.3419376 0.010013773 0.0023505385
0.34604207 0.010014663 0.0023510226
0.35010639 0.010009744 0.0023507718
0.35399231 0.010039189 0.0023469299
0.35798129 0.00997777 0.002347935
0.36200872 0.010037167 0.0023483997
0.36605042 0.010047034 0.0023483771
0.36993262 0.010033377 0.0023475476
0.3739329 0.009968916 0.0023489257
0.37790495 0.0099015571 0.0023484544
0.38188282 0.0099205514 0.0023483208
0.38588062 0.0099087916 0.0023484316
0.38989511 0.0099366 0.0023480977
0.39388895 0.0099441363 0.002348674
0.39801037 0.0099190306 0.0023476242
0.40203887 0.0098784659 0.0023491425
0.40596092 0.0099450201 0.0023483515
0.40991732 0.0099767167 0.002349095
0.41393256 0.0099953506 0.0023481476
0.41797143 0.010025048 0.0023502519
0.42196664 0.010029009 0.002350084
0.4259747 0.010030028 0.0023485119
0.42999062 0.010036405 0.0023498579
0.43404526 0.010061684 0.0023496035
0.4379462 0.010066971 0.0023496407
0.44188538 0.010055232 0.002349003
0.44601464 0.010026634 0.0023494076
0.45001146 0.009998085 0.0023506286
0.4539974 0.01002288 0.0023499129
0.45799333 0.010040444 0.0023505876
0.46188173 0.010013085 0.0023508817
0.46604288 0.010074545 0.0026749254
0.4682011 0.0088490378 0.0038793369
0.33412901 0.014028894 0.0027307419
0.33795401 0.014031919 0.0023514801
0.34197184 0.014061344 0.0023523602
0.34600392 0.014062511 0.0023515944
0.35007092 0.014075623 0.0023511262
0.35402092 0.014044958 0.0023490037
0.3579888 0.014055743 0.002349308
0.36198977 0.01406525 0.0023486405
0.36603749 0.014040727 0.002348908
0.36995164 0.01401858 0.0023489634
0.37389475 0.014053894 0.0023495338
0.37786841 0.013998028 0.0023490121
0.38185853 0.014002612 0.0023500435
0.38591358 0.014008371 0.0023507047
0.38988659 0.013990605 0.0023492563
0.39390981 0.013992326 0.0023503762
0.39800382 0.013998351 0.0023495746
0.40200442 0.013975549 0.0023504982
0.40594381 0.013992153 0.0023490437
0.40992305 0.013971048 0.0023504607
0.41396677 0.014006335 0.0023498815
0.41798958 0.014028821 0.0023498656
0.42196357 0.014012618 0.0023496386
0.42596248 0.014004534 0.0023497958
0.42995599 0.014046748 0.0023513432
0.4340032 0.014052833 0.0023493248
0.4379752 0.014040729 0.002350332
0.44193456 0.014046823 0.0023503613
0.44602841 0.014054855 0.0023503196
0.45003524 0.014042117 0.0023502908
0.4540447 0.014016449 0.0023500142
0.45804474 0.014060494 0.0023514219
0.46191496 0.014045245 0.0023501466
0.46582696 0.013996288 0.0027307391
0.33440965 0.017882355 0.0028457448
0.33793432 0.017998489 0.0023513602
0.3419351 0.017997319 0.0023514912
0.34604952 0.017992722 0.0023513932
0.35010538 0.017979883 0.0023512878
0.35406187 0.017986005 0.0023490111
0.35797894 0.017995162 0.0023489888
0.36202732 0.017993303 0.0023482554
0.36603582 0.018063879 0.0023497441
0.36993212 0.01804276 0.0023492805
0.37390479 0.018082118 0.0023494998
0.37795645 0.018052531 0.0023484738
0.38193035 0.018033586 0.0023505276
0.38589528 0.018072722 0.0023497862
0.38988644 0.018050263 0.0023486388
0.3939034 0.018054275 0.0023496833
0.398 0.018049538 0.0023492356
0.40205213 0.01806879 0.0023499245
0.40599284 0.018036338 0.0023478677
0.40990788 0.018055171 0.0023501415
0.41393784 0.018051034 0.0023490628
0.41798541 0.01805721 0.0023502032
0.42197806 0.018049328 0.0023489906
0.42595866 0.018041581 0.0023495296
0.42996827 0.018061576 0.0023501909
0.43402538 0.018049756 0.0023488028
0.4380244 0.018005094 0.0023489422
0.44194588 0.017998736 0.0023505869
0.44599697 0.018010961 0.0023499366
0.4500379 0.018001353 0.0023491154
0.45404515 0.018007746 0.0023502724
0.4580411 0.018015357 0.0023511339
0.46190661 0.018008208 0.0023501075
0.465473 0.017887106 0.0028702607
0.3351278 0.021573491 0.0032232427
0.33794934 0.021941775 0.0023820291
0.34194604 0.021932682 0.0023530449
0.3460201 0.021930406 0.0023534289
0.35002095 0.021957407 0.0023528757
0.35408232 0.021894637 0.0023498468
0.35799941 0.021908952 0.0023499762
0.36198232 0.021931708 0.002349773
0.36604169 0.022043513 0.0023496209
0.36993772 0.022054106 0.0023493455
0.373909 0.022063665 0.0023509143
0.3779504 0.022020638 0.0023502589
0.38192397 0.022071559 0.0023509385
0.38588431 0.022037134 0.0023507325
0.38990712 0.022040274 0.0023505269
0.39390793 0.022068631 0.0023507823
0.3979927 0.022045564 0.0023497683
0.40199721 0.02201304 0.0023509315
0.40595627 0.02199907 0.0023504237
0.40993512 0.022050893 0.0023506675
0.41395134 0.021975609 0.0023493564
0.4179945 0.02194792 0.0023512256
0.42197463 0.021980686 0.0023516186
0.42596158 0.021983411 0.0023495601
0.42998028 0.021947179 0.0023517988
0.43404844 0.021970004 0.0023513453
0.43805096 0.021978496 0.0023503541
0.44196934 0.021919902 0.0023502968
0.44601703 0.022012334 0.0023510922
0.45003203 0.022029128 0.0023516905
0.45402759 0.022041062 0.0023508496
0.45799831 0.021984426 0.0023516708
0.46198893 0.022009561 0.0024194699
0.46474853 0.021520402 0.0032753597
0.33581877 0.024450587 0.0037352622
0.33805421 0.025898911 0.002720779
0.34193915 0.025973169 0.0023528729
0.34602284 0.025943546 0.0023528293
0.35006893 0.025960425 0.0023528929
0.35412064 0.025941107 0.0023507511
0.35802791 0.025993198 0.0023498042
0.36206684 0.025909945 0.002349929
0.36605167 0.025961759 0.0023502994
0.36994514 0.02607061 0.0023498605
0.37388477 0.026076866 0.0023506393
0.37791297 0.026061187 0.0023494957
0.38191798 0.026053499 0.002350396
0.38596347 0.026044382 0.0023514659
0.38991168 0.026000915 0.0023498407
0.3938984 0.026036123 0.0023508037
0.39800423 0.026042441 0.0023501657
0.40202293 0.026018292 0.0023508817
0.40596578 0.025989415 0.0023494114
0.4099268 0.025977297 0.0023515557
0.41396788 0.025925465 0.0023501369
0.41798908 0.025927223 0.0023517325
0.42197922 0.026029406 0.0023510533
0.42594749 0.026026033 0.0023507983
0.4299514 0.026013335 0.0023518801
0.43401054 0.025997832 0.0023508144
0.43807256 0.025951155 0.0023507464
0.44202378 0.025945093 0.0023514261
0.44603151 0.026008945 0.002351016
0.45005909 0.02602216 0.0023506952
0.45406184 0.026037658 0.0023506552
0.4580639 0.025981914 0.0023509131
0.46189937 0.025872037 0.0027551029
0.46417677 0.024433907 0.0038363114
0.33890635 0.02975776 0.0030174206
0.34196869 0.029981438 0.0023563888
0.34604499 0.029974611 0.0023537567
0.35004529 0.029953426 0.0023539448
0.35411987 0.02993645 0.0023530528
0.35808399 0.029976979 0.0023506416
0.36207247 0.029932991 0.0023507362
0.36600792 0.029937137 0.0023515497
0.36993828 0.030081164 0.0023506803
0.37393871 0.030075107 0.0023515257
0.37791067 0.030062446 0.0023506542
0.38197589 0.030014992 0.0023517502
0.38600492 0.030028971 0.0023525269
0.38998598 0.02997536 0.0023501206
0.39395452 0.029970551 0.0023512617
0.39800948 0.029984629 0.0023511681
0.40202019 0.029985771 0.0023517795
0.40595287 0.029985936 0.0023506279
0.40992796 0.029996237 0.0023525269
0.41392308 0.029999318 0.0023518617
0.41796407 0.03003775 0.0023517804
0.42194963 0.030061306 0.0023515718
0.42597961 0.030045234 0.0023517041
0.42999598 0.030083299 0.0023525665
0.43405747 0.030054808 0.0023508815
0.43809333 0.029964482 0.0023517874
0.44202158 0.029993318 0.0023524822
0.44602019 0.030021766 0.0023519886
0.45000419 0.030028773 0.0023522363
0.45400944 0.030017577 0.0023532084
0.45803225 0.030006334 0.0023594256
0.46108019 0.029750679 0.0030348466
0.33961955 0.033000574 0.0035821293
0.34196547 0.034032423 0.0026249511
0.34604982 0.034058914 0.002354397
0.3500905 0.033989418 0.0023541823
0.35403973 0.033994786 0.0023531774
0.35809964 0.033898126 0.0023509269
0.36208102 0.033996101 0.0023514528
0.36607358 0.033958942 0.0023505967
0.36994356 0.034059025 0.0023509318
0.37390113 0.034083616 0.0023517557
0.37790734 0.034053393 0.0023512079
0.38197431 0.034044221 0.0023507872
0.38604712 0.033993352 0.0023526999
0.38999787 0.033983484 0.0023513716
0.39395657 0.033979528 0.0023519502
0.39798403 0.034000702 0.0023509127
0.40192354 0.034022737 0.0023520559
0.40588182 0.034006462 0.0023515227
0.40990615 0.034035407 0.0023514281
0.41389179 0.034032818 0.0023516291
0.41792905 0.034031332 0.0023514912
0.42199463 0.034014262 0.0023517013
0.42596081 0.033987802 0.0023512514
0.42998421 0.03401183 0.0023526219
0.43400276 0.034036051 0.0023516328
0.43804592 0.034017105 0.0023523006
0.44200113 0.034050666 0.0023521902
0.44602263 0.034059733 0.0023515862
0.45006126 0.034065641 0.0023516773
0.45404071 0.034023102 0.0023517467
0.45807078 0.034006588 0.0026670024
0.4604395 0.032920554 0.003552123
0.34291333 0.037461702 0.0031840685
0.34602284 0.038102407 0.0024342381
0.3500469 0.037974451 0.0023554582
0.35407421 0.038026836 0.0023547499
0.35817617 0.037936863 0.0023529939
0.36208946 0.037976056 0.0023523655
0.3660287 0.037950523 0.0023522556
0.36995491 0.038069613 0.0023516035
0.3739194 0.038086236 0.0023519841
0.37793869 0.037989724 0.0023516011
0.38198373 0.038019672 0.0023522247
0.38601878 0.038016781 0.0023537073
0.38996369 0.038005475 0.0023517667
0.3939544 0.037971728 0.0023520112
0.39802027 0.038056098 0.0023520824
0.40194178 0.038053256 0.0023531369
0.40589777 0.038055874 0.0023523844
0.40990973 0.038037773 0.0023531115
0.4138723 0.038020257 0.0023525332
0.41793603 0.037971895 0.0023535925
0.42197618 0.038031049 0.0023530417
0.42596209 0.03802577 0.0023518789
0.4299691 0.037984446 0.0023538359
0.43405339 0.038046502 0.00235324
0.43809932 0.038040087 0.00235201
0.44200349 0.037988681 0.0023525322
0.44602603 0.038043987 0.0023538612
0.45003685 0.038083505 0.0023537881
0.45404705 0.038044471 0.0024626679
0.45699888 0.03740488 0.003253171
0.34659868 0.041628987 0.0029799684
0.35002884 0.042112716 0.0023727433
0.35404071 0.042017456 0.0023549011
0.35805815 0.041975711 0.002354983
0.3620843 0.042003866 0.0023514587
0.36604616 0.041962072 0.0023523655
0.36994132 0.042063139 0.0023517339
0.37399346 0.042051945 0.0023523674
0.37799624 0.042036965 0.0023524191
0.38192701 0.041982453 0.0023529904
0.38601524 0.041966137 0.002353993
0.38999701 0.041941226 0.0023518186
0.39396295 0.041947231 0.0023534812
0.39800343 0.042034939 0.0023530356
0.40192837 0.041984428 0.0023523872
0.40586221 0.041941963 0.0023519862
0.4099184 0.041978896 0.0023536659
0.41393679 0.04199956 0.0023535222
0.41793501 0.041976072 0.0023531369
0.42196676 0.042001553 0.0023533569
0.42597482 0.041998792 0.0023532768
0.42995954 0.041975789 0.0023540556
0.43402055 0.041937482 0.0023533627
0.43805945 0.04198819 0.0023538002
0.44203299 0.041953534 0.002353579
0.44599441 0.041975133 0.0023535946
0.45005834 0.042037692 0.0023714448
0.45342359 0.041646246 0.00305976
0.34776187 0.044494167 0.0037175517
0.35025764 0.04588671 0.0028478042
0.35403684 0.046014819 0.0023554473
0.35806042 0.046022702 0.0023563514
0.36213735 0.045978762 0.0023545425
0.36604807 0.046001591 0.0023528135
0.36991885 0.046039652 0.00235224
0.37398481 0.046063948 0.0023529383
0.3779887 0.046032183 0.0023533516
0.38201371 0.045986965 0.0023529299
0.38604596 0.0459348 0.0023540112
0.39001244 0.045986746 0.0023529441
0.39392251 0.0459999 0.0023529376
0.39798287 0.046004768 0.0023523511
0.40195349 0.045975432 0.0023532459
0.40591696 0.045933824 0.0023525611
0.41000226 0.045966279 0.0023538687
0.4139159 0.045982022 0.0023532552
0.41792226 0.045996834 0.0023530181
0.42199653 0.045983627 0.0023533446
0.42596447 0.045973539 0.0023530847
0.42996955 0.046045024 0.0023541909
0.43402362 0.045951527 0.0023526719
0.43807191 0.045999974 0.0023531362
0.44198546 0.04599487 0.0023539723
0.44603124 0.045981374 0.0023542845
0.44984788 0.045746759 0.0028332083
0.45238376 0.044348899 0.003706807
0.35135213 0.048850685 0.0035943065
0.35427177 0.04981244 0.0027982923
0.35800967 0.050010048 0.0023687284
0.36210567 0.049905777 0.0023555621
0.36603227 0.049958158 0.0023535076
0.36994782 0.049979482 0.0023530149
0.3739951 0.050017841 0.0023539367
0.37799075 0.049986906 0.0023533681
0.38196853 0.049971577 0.0023538426
0.38600051 0.049922306 0.0023554498
0.3899897 0.05001742 0.0023532507
0.39398164 0.050014019 0.0023532668
0.39802065 0.04998292 0.0023530519
0.40193945 0.049940359 0.0023549083
0.40588334 0.050012577 0.0023537294
0.40998235 0.050014257 0.0023536719
0.41398573 0.050014392 0.0023547108
0.41795704 0.049944855 0.0023547125
0.4219901 0.04998821 0.0023536598
0.42594704 0.049958274 0.0023545555
0.42998305 0.050025769 0.0023550869
0.43404052 0.049999833 0.0023545616
0.43809924 0.050031949 0.0023544852
0.44202513 0.050010234 0.0023714995
0.44573539 0.049718872 0.0028460252
0.44867012 0.04863384 0.0035127634
0.35560355 0.052453011 0.0038048187
0.35835367 0.05339554 0.002997299
0.36205384 0.053943936 0.0024375948
0.36612076 0.053904433 0.0023550589
0.36994725 0.05399137 0.002353223
0.37396264 0.054011833 0.0023526971
0.37800145 0.053981338 0.0023544007
0.3819854 0.053973418 0.0023540063
0.38605917 0.053993739 0.002354661
0.38998893 0.054009069 0.0023533572
0.39394677 0.053988405 0.00235477
0.39800537 0.053969245 0.0023535832
0.40196246 0.053952262 0.0023539532
0.40589255 0.05403401 0.002353125
0.41002101 0.054018088 0.0023540151
0.41394293 0.053987548 0.0023552002
0.41793916 0.05399698 0.0023548198
0.42195794 0.054043811 0.002354379
0.42598265 0.053979103 0.0023532768
0.42997256 0.053971428 0.0023556361
0.43401489 0.054021209 0.0023538738
0.43804333 0.05403313 0.002452913
0.44167542 0.053412333 0.003068601
0.44458017 0.052123744 0.0037712203
0.36262885 0.056976922 0.0031922371
0.36601338 0.057969157 0.0026213271
0.36998212 0.057891056 0.0023556862
0.37400451 0.058051813 0.0023549113
0.37798208 0.058000315 0.0023543206
0.38196757 0.057915084 0.0023545688
0.38602057 0.058035903 0.0023563839
0.39000294 0.058031324 0.0023541127
0.39395279 0.057970062 0.0023541879
0.39800712 0.057984903 0.0023547278
0.4019435 0.058008511 0.0023551572
0.40587586 0.058014337 0.0023551523
0.409996 0.057973925 0.0023549597
0.4139775 0.058006123 0.0023557404
0.41791004 0.058051236 0.002354457
0.42196417 0.058020264 0.0023558463
0.425962 0.058022447 0.0023555735
0.4299708 0.058012754 0.0023648199
0.43399322 0.058036171 0.0026487694
0.43735644 0.057076354 0.0032147991
0.36707711 0.060358513 0.0034832975
0.37018052 0.061049074 0.0030181613
0.37410036 0.061836682 0.0027169285
0.37797415 0.062008921 0.0024048402
0.38198233 0.061958112 0.0023549784
0.38601705 0.062036511 0.0023564878
0.38996297 0.062016111 0.0023540354
0.39396474 0.061944425 0.0023546412
0.39800671 0.062028766 0.0023552065
0.40193397 0.062050778 0.0023548743
0.40590009 0.062012408 0.0023538687
0.4099943 0.061992053 0.0023551385
0.41398066 0.062037665 0.0023563877
0.41796866 0.06201404 0.0023556729
0.42201832 0.062046446 0.00241459
0.42586964 0.061917655 0.0027754379
0.42970768 0.061096247 0.0031195462
0.43320134 0.060302172 0.0036786599
0.37560955 0.064200379 0.0038778775
0.3783603 0.064695448 0.0032948637
0.38212299 0.065445952 0.0028418105
0.38601542 0.06590534 0.0027661819
0.39000174 0.066015415 0.0026577862
0.39395565 0.066034764 0.0025226062
0.39799047 0.066057339 0.0024074884
0.40198466 0.06603533 0.002385363
0.40596411 0.066087857 0.0025151994
0.40998989 0.066014156 0.0026593059
0.41391683 0.065847084 0.0027911512
0.41790015 0.065442197 0.0028519519
0.4214676 0.064797565 0.0032638093
0.42431736 0.064228304 0.0038167122
0.39087376 0.068099678 0.0038982972
0.3943719 0.06827303 0.0036670899
0.39805686 0.068556339 0.0035095229
0.40182087 0.068536684 0.0033642144
0.40571937 0.068303213 0.0036540795
0.40866116 0.068193108 0.003935589
0.39130691 -0.072145507 0.0079537481
0.39446846 -0.072369225 0.0077305865
0.39816567 -0.072533213 0.007406224
0.40192533 -0.072446018 0.0074768779
0.40531647 -0.072279595 0.0077362657
0.40833986 -0.072073497 0.0078229439
0.37536132 -0.068324625 0.0077856556
0.37828851 -0.068859376 0.0071276785
0.38206583 -0.069431707 0.0065150443
0.38603273 -0.069675595 0.0061511165
0.38998738 -0.07007724 0.005985179
0.39395636 -0.070395924 0.0057221362
0.39795402 -0.070643567 0.0054089283
0.4019973 -0.070588797 0.0054798229
0.40603033 -0.070369318 0.005772803
0.41000769 -0.070047684 0.0059454869
0.41395748 -0.069757022 0.0061497358
0.41787845 -0.069459058 0.0064887363
0.42155623 -0.068810314 0.0071991845
0.42467034 -0.068177179 0.0078154635
0.36704201 -0.064507149 0.0075491248
0.3702867 -0.065174267 0.0068549709
0.37401327 -0.065962031 0.0060614864
0.37777326 -0.066746712 0.0052584433
0.38171056 -0.067461587 0.0045380737
0.385378 -0.067769028 0.0042321351
0.38849646 -0.067998007 0.0040749153
0.4149386 -0.067733951 0.004136689
0.41838273 -0.067454524 0.0046095676
0.42219129 -0.066688694 0.0053216144
0.42595506 -0.06596674 0.0061156861
0.42978972 -0.065146908 0.0068469429
0.43322578 -0.064422108 0.0075147925
0.3595981 -0.060361467 0.0077626365
0.36231962 -0.061348431 0.0067923628
0.36582106 -0.062221359 0.0058241193
0.36967722 -0.0630536 0.0050181751
0.37285542 -0.063705325 0.0043476084
0.42712772 -0.063704059 0.0043367115
0.43030554 -0.063089855 0.0049928203
0.43413305 -0.062199678 0.0057112984
0.43755722 -0.061295655 0.0068800719
0.44030502 -0.060238857 0.0077476688
0.35512093 -0.056549437 0.0074587492
0.35824195 -0.057729125 0.0064075273
0.36151987 -0.058720671 0.0050793132
0.36448187 -0.059807856 0.0041153342
0.43566439 -0.05966616 0.0042657056
0.4384225 -0.05866215 0.0051598097
0.44172683 -0.057681613 0.0064599845
0.44477013 -0.05660633 0.0075214189
0.35088572 -0.05294548 0.0072496915
0.35402718 -0.053901367 0.0059692017
0.35719118 -0.055050112 0.0048548076
0.44266674 -0.055030551 0.0047873855
0.44597688 -0.053988595 0.0060292049
0.44911805 -0.052909222 0.0071431734
0.34698847 -0.049207103 0.0071997996
0.34977293 -0.050222762 0.0057509169
0.35276109 -0.051275026 0.0046009137
0.44712457 -0.05138823 0.0045343353
0.45019287 -0.050133348 0.0057402262
0.45286125 -0.049113695 0.0072605247
0.34343955 -0.04476399 0.0074094646
0.34597042 -0.045968495 0.0059819631
0.34857523 -0.04715357 0.0045616189
0.45139065 -0.046967119 0.0045995922
0.45399556 -0.045930661 0.0061109532
0.45654723 -0.044623256 0.0074061155
0.33963355 -0.040291026 0.0077514001
0.34226647 -0.041764699 0.0064575863
0.34502023 -0.042769693 0.0047705057
0.45495853 -0.0427121 0.0047896113
0.45765984 -0.041777506 0.0064623947
0.4602609 -0.040383555 0.0077546621
0.33863947 -0.037558109 0.0068662805
0.34134328 -0.038457964 0.0051330104
0.45867413 -0.038476326 0.0051226667
0.46129447 -0.03759912 0.0067986036
0.3354699 -0.033076253 0.0074462453
0.33770636 -0.03422695 0.0058013625
0.34025833 -0.035701212 0.004306036
0.45982465 -0.035485461 0.0041888924
0.46216926 -0.03412259 0.0058620586
0.46441478 -0.032898575 0.007569754
0.33483523 -0.029741978 0.0068035545
0.3370139 -0.030453101 0.004930865
0.46294719 -0.030299434 0.0050194361
0.46508697 -0.029722761 0.0068890173
0.33176932 -0.02456446 0.0077783233
0.33410627 -0.026025122 0.0060383868
0.33639956 -0.027395615 0.0043823044
0.46365547 -0.027067438 0.0043755299
0.4659408 -0.025969777 0.0061548604
0.46824598 -0.024443375 0.0078094155
0.3312088 -0.021720655 0.0072107064
0.33330479 -0.02226894 0.0053370446
0.46664223 -0.022259215 0.0052808383
0.46879774 -0.02163888 0.0071558096
0.33052999 -0.017885268 0.0064797308
0.33259565 -0.018547626 0.0046041291
0.4673906 -0.018290589 0.0046117976
0.46935102 -0.01789804 0.006556808
0.33020785 -0.013918472 0.0061740172
0.33216554 -0.014478846 0.0042655156
0.46770278 -0.014310812 0.0042848215
0.46965042 -0.013850992 0.0062466622
0.32789657 -0.008769393 0.0079280781
0.32993406 -0.0099661527 0.0059633129
0.46790296 -0.010933065 0.004156162
0.46996671 -0.0099428911 0.0059977924
0.47209668 -0.0085611772 0.0079565588
0.32770574 -0.0056852931 0.0077634924
0.32965779 -0.0060145478 0.0057473276
0.47032186 -0.006001533 0.0057803844
0.47227252 -0.0056212717 0.0077860057
0.32746312 -0.0018059623 0.0075415382
0.32934746 -0.0020595507 0.0055699218
0.47058246 -0.0020663994 0.0054862108
0.4724735 -0.0018966814 0.0074927486
0.32742479 0.0019727661 0.0074749445
0.32931361 0.0019801923 0.0054828138
0.47051218 0.0019856833 0.0055842185
0.47240096 0.0017151975 0.0075256596
0.32774335 0.0058016041 0.0076815053
0.32964996 0.0060272012 0.0057103983
0.47026402 0.0060371794 0.005830558
0.47225219 0.0056075929 0.0078301746
0.32791185 0.0086091487 0.0079100067
0.32995576 0.010031078 0.0059953765
0.33205175 0.011772963 0.0040198732
0.46790656 0.010851228 0.0041713696
0.46992967 0.010092919 0.005993057
0.4720445 0.0086170221 0.007956475
0.33026612 0.014027913 0.0062684878
0.33219096 0.014431514 0.0043122019
0.4677338 0.014339888 0.0042244303
0.46967801 0.013913941 0.0062131402
0.33060887 0.017949887 0.0065124268
0.33259535 0.018308504 0.0045187199
0.46731231 0.018345222 0.0046766149
0.46938729 0.017776871 0.0065617142
0.33112937 0.021504752 0.0071282107
0.33329749 0.02213976 0.0052465447
0.46660319 0.022152841 0.0054154862
0.46874502 0.021508636 0.0072463308
0.33177271 0.024534024 0.0077516711
0.33409691 0.02591251 0.0060513644
0.33634952 0.02723204 0.0043981951
0.46358278 0.027132289 0.0044299052
0.46584287 0.025873233 0.0061260602
0.46825722 0.024296002 0.0078172442
0.33490008 0.029700078 0.0068621426
0.33707321 0.030307205 0.0049677342
0.46296066 0.030258771 0.0050377944
0.46507743 0.029780613 0.0069475113
0.33550429 0.032901783 0.007621319
0.33778772 0.034085311 0.0058595529
0.34015286 0.035660446 0.0043019233
0.45961869 0.035480823 0.0043124612
0.46214274 0.034124065 0.0058184098
0.46441862 0.032945018 0.0075457869
0.33871329 0.037655413 0.0068345075
0.34135202 0.038474854 0.005125077
0.4559958 0.039931688 0.0044174264
0.4585878 0.03838791 0.0052809431
0.46122241 0.037546944 0.0069662086
0.33979306 0.040298425 0.007676281
0.34232691 0.041731779 0.0064682714
0.3450667 0.042743076 0.0048227157
0.45495877 0.042682007 0.0049273507
0.45756385 0.041722141 0.0065145059
0.46026388 0.04025979 0.0078606699
0.34352058 0.044692501 0.0074274563
0.34606192 0.045957666 0.0061157439
0.3487494 0.047126509 0.0046239342
0.45127836 0.046971083 0.0045493692
0.45392394 0.04591937 0.0061111292
0.4565239 0.044670694 0.0075122034
0.34714225 0.048987161 0.0072232219
0.34980547 0.050155379 0.0058045266
0.3528823 0.051363353 0.0046033403
0.44698516 0.051185805 0.0046469956
0.45014408 0.050098065 0.0058396133
0.45290059 0.049043864 0.0072413189
0.35086429 0.052893329 0.0072297272
0.35404903 0.053929921 0.0060528982
0.35731852 0.054952458 0.0048252251
0.43981647 0.055909682 0.0041704788
0.44267479 0.054921854 0.0049192598
0.44593278 0.053850513 0.0061489437
0.44900641 0.052883204 0.0073448024
0.35526267 0.056428228 0.007449517
0.35832295 0.057621438 0.0064772442
0.36167502 0.058657117 0.0052020052
0.36437735 0.059695099 0.0043377182
0.43519226 0.059714574 0.00420412
0.438485 0.058594059 0.0052332338
0.44168788 0.057632484 0.0065276958
0.44468692 0.056448422 0.0075056553
0.35966828 0.060306858 0.0078411559
0.36245298 0.061311055 0.0069974577
0.36587533 0.062177453 0.005814292
0.36981091 0.063001603 0.0050155655
0.37283826 0.063549928 0.0043705185
0.42723772 0.063542835 0.0044962335
0.43028894 0.062938988 0.0051505254
0.43404663 0.062067986 0.0058717872
0.43749565 0.061228525 0.006811155
0.44016671 0.060263094 0.0077539906
0.36693501 0.064314514 0.0074951486
0.37021989 0.065062203 0.0069165039
0.37407887 0.065832973 0.0061327708
0.3778055 0.066581443 0.0053885309
0.38166234 0.067359954 0.0046661501
0.3855947 0.067665607 0.0042328476
0.38909563 0.067858778 0.0040698294
0.41097364 0.067786485 0.0041579148
0.41464028 0.067638442 0.0043800301
0.41824678 0.067314975 0.0046267128
0.42221659 0.066643968 0.0053951116
0.42592055 0.065819748 0.006141766
0.42973328 0.065032929 0.006974861
0.43294582 0.064351298 0.0076249898
0.37575805 0.068286896 0.0078578331
0.37831244 0.068713315 0.0073190187
0.38212749 0.069371141 0.006587836
0.38607475 0.069605708 0.0061850017
0.3899819 0.069926798 0.0060218917
0.39393854 0.070204623 0.0058163297
0.39796191 0.070503473 0.0056220987
0.4020831 0.070550725 0.0055421083
0.40603983 0.070267342 0.0058237314
0.41001114 0.069856755 0.0059834099
0.41388428 0.069580279 0.0062657595
0.41794598 0.069281891 0.0065906192
0.421556 0.068842106 0.0072988574
0.42460147 0.068068132 0.0077788257
0.39178166 0.072058059 0.0079613384
0.39448306 0.072140723 0.00779504
0.3981989 0.072373316 0.0075641586
0.40178567 0.072430246 0.0075042276
0.40569934 0.072205149 0.0078028725
0.39504543 -0.076183781 0.01184584
0.39813614 -0.076335587 0.011649063
0.40177262 -0.07624498 0.011709778
0.40476465 -0.076090112 0.011906916
0.37547779 -0.072114959 0.011756792
0.37835243 -0.072809197 0.011190014
0.38210607 -0.073178649 0.010629053
0.38605678 -0.07348635 0.010339797
0.39000535 -0.073820278 0.010087454
0.39393237 -0.074242555 0.0099350289
0.3979362 -0.074510761 0.0096294237
0.40203342 -0.074492015 0.0097591132
0.40603599 -0.074197702 0.0099793198
0.4099654 -0.073756337 0.010018195
0.41394824 -0.073533468 0.010309545
0.41796309 -0.073261939 0.010618327
0.42163143 -0.072667107 0.011255032
0.42439875 -0.072135001 0.011876388
0.36709371 -0.068334557 0.011530259
0.37028942 -0.069041543 0.010836671
0.37408385 -0.069948412 0.010106283
0.37779322 -0.070782878 0.0093290145
0.38183042 -0.071414568 0.0086983666
0.38570172 -0.071636207 0.0083341217
0.3888523 -0.071809359 0.0080882628
0.41097063 -0.071889453 0.0081155067
0.41418102 -0.071746618 0.0083631352
0.41824692 -0.071389534 0.0086459238
0.42219853 -0.07065852 0.0093717473
0.42594942 -0.069856651 0.010120342
0.42975873 -0.069022499 0.010858028
0.432933 -0.068406768 0.011553491
0.35937738 -0.064500161 0.011524643
0.36227256 -0.065408833 0.010676612
0.36590436 -0.0661669 0.0097957822
0.36971688 -0.066987 0.0089553883
0.37269375 -0.067701332 0.0084138131
0.42723006 -0.067642577 0.0083445683
0.4302603 -0.067012355 0.0089522442
0.43415642 -0.066240206 0.0097948574
0.43767735 -0.06534493 0.010634507
0.44046059 -0.0644053 0.01161519
0.35493127 -0.060712673 0.011310901
0.35812849 -0.061905593 0.010139781
0.36146146 -0.063062698 0.008904946
0.36421952 -0.063830227 0.0081609143
0.4357512 -0.063841477 0.0080592101
0.43857208 -0.0628988 0.008969781
0.44190034 -0.061791845 0.010234263
0.4450376 -0.060644004 0.011332904
0.35069668 -0.057159688 0.011107349
0.35384434 -0.058098692 0.00974767
0.35695872 -0.059222955 0.008603923
0.44299811 -0.059236389 0.0086682392
0.44612688 -0.058127686 0.0097910091
0.44937533 -0.057063602 0.011044783
0.34399819 -0.052003045 0.011628161
0.34650958 -0.053456362 0.010805099
0.349722 -0.05450771 0.0094304504
0.35252067 -0.055437062 0.0083197262
0.44744036 -0.055436701 0.0082724886
0.45035607 -0.054510131 0.0094054295
0.45337442 -0.053480644 0.010810652
0.34291112 -0.04943129 0.011013518
0.34550536 -0.050395697 0.0093528088
0.34827921 -0.051856592 0.00814813
0.45175618 -0.05175402 0.0081331041
0.45443025 -0.05030141 0.0094695901
0.45703912 -0.049286038 0.011092096
0.33922514 -0.044996198 0.011341441
0.34182096 -0.046166029 0.0097985575
0.34438589 -0.047497798 0.008450863
0.45558369 -0.047297124 0.0084055504
0.45810562 -0.046119779 0.0098239984
0.46075293 -0.044879321 0.011326524
0.33570197 -0.040723149 0.011638516
0.33818388 -0.041850038 0.010159343
0.34072736 -0.043101009 0.0087290974
0.45919681 -0.043055125 0.0086634103
0.46181399 -0.041857034 0.010152299
0.46437833 -0.040645186 0.011592172
0.3345575 -0.03767693 0.010666731
0.33702475 -0.038538042 0.0089627728
0.46299908 -0.038506195 0.0089218328
0.4652884 -0.037762135 0.010692414
0.32359853 -0.032690745 0.011918705
0.32470343 -0.034754056 0.011668921
0.33150676 -0.032955337 0.011551076
0.33370432 -0.034026954 0.0097690625
0.33608076 -0.035932109 0.0082440581
0.4637793 -0.035521816 0.0082009872
0.46617025 -0.034029052 0.0098867146
0.46840784 -0.032713108 0.011630399
0.33093384 -0.029638782 0.010803184
0.33298039 -0.030258024 0.0089443158
0.46695659 -0.030280748 0.0090554785
0.4689883 -0.029684726 0.010898665
0.32796735 -0.024299955 0.011662562
0.33011854 -0.025845181 0.01007201
0.3323597 -0.027219288 0.0083683114
0.46762258 -0.027205229 0.0083984435
0.46984771 -0.025948824 0.010135427
0.47204578 -0.024624199 0.011817162
0.31945682 -0.022324122 0.011859277
0.32728693 -0.021599358 0.011259592
0.32930586 -0.022073895 0.0093378713
0.47067398 -0.02227179 0.009362841
0.47270438 -0.021574 0.011194007
0.31861418 -0.016175725 0.01162564
0.32119966 -0.017221265 0.009607669
0.32675618 -0.01782777 0.010549776
0.3286325 -0.018295422 0.0086290035
0.47131637 -0.018081121 0.008743369
0.47312209 -0.017892011 0.010702494
0.31832936 -0.015672009 0.011847376
0.32648697 -0.013992307 0.010281546
0.32830986 -0.014146793 0.0083063757
0.4716056 -0.014160401 0.0084638139
0.473423 -0.013906494 0.010415896
0.31829187 -0.010095807 0.011281536
0.32121119 -0.011351466 0.0089964652
0.32615465 -0.010017038 0.01011959
0.32808653 -0.010288128 0.0081429286
0.47184938 -0.010811316 0.008203418
0.47369352 -0.0099022556 0.010076969
0.31864917 -0.0045425678 0.01040465
0.32295334 -0.005325865 0.011231149
0.32585424 -0.006034947 0.0099261003
0.47415924 -0.0060363845 0.009991399
0.47605115 -0.0049589211 0.011855016
0.31693393 -0.0036988629 0.011750987
0.32375139 -0.0016695469 0.011677914
0.32551059 -0.0021393935 0.0097940397
0.47449687 -0.0021244856 0.0097721415
0.47635403 -0.0013897236 0.011760378
0.3168292 0.0039775646 0.011821756
0.32367748 0.0017288966 0.011627377
0.32547608 0.0020556478 0.0096753994
0.47440964 0.0019428353 0.0098348418
0.47625381 0.0019550105 0.011818098
0.31861058 0.004820874 0.010420941
0.32382283 0.004993598 0.011776906
0.32580015 0.0060655707 0.0099273203
0.4719274 0.0073621599 0.008036742
0.47406685 0.0059889648 0.0099995807
0.47604051 0.0045504831 0.011895264
0.31799278 0.0095264716 0.011486389
0.32082564 0.010616912 0.0092655346
0.32619905 0.010040801 0.010113684
0.32812467 0.01049672 0.0081477053
0.47182935 0.010750173 0.008210375
0.47369623 0.010019109 0.010128494
0.31867245 0.014885375 0.011533517
0.32033828 0.015573201 0.010231303
0.32657754 0.014010733 0.010328456
0.32836914 0.014420419 0.0084032491
0.47161344 0.014348674 0.0084210085
0.47340345 0.013976171 0.010334382
0.31896895 0.019791732 0.011881796
0.32172123 0.016035376 0.0091503672
0.32682189 0.01786934 0.010663236
0.32862446 0.018184286 0.0087104775
0.47131225 0.018191233 0.0087557025
0.47318828 0.017834032 0.010673371
0.31927091 0.020262185 0.011645919
0.32123381 0.020990387 0.010116018
0.32724291 0.021559643 0.011196475
0.32932895 0.02216283 0.0092610596
0.47060624 0.02214911 0.0095063597
0.47267368 0.021387674 0.011299782
0.32056656 0.024965404 0.011808244
0.32772598 0.024344949 0.011827271
0.33009914 0.025881164 0.010117963
0.3323555 0.027093455 0.0083372127
0.46758178 0.026930155 0.0083915424
0.4697752 0.025823347 0.010162101
0.47211105 0.024293885 0.011866329
0.33097228 0.029776238 0.010947029
0.33299243 0.030303003 0.0090696979
0.466943 0.030282589 0.0090885814
0.46896756 0.029682433 0.010929077
0.32345331 0.032115493 0.011932533
0.3245157 0.03405894 0.011708819
0.33162326 0.032920454 0.011663639
0.33383793 0.034077626 0.0098743364
0.3361018 0.035522923 0.0082013234
0.4636994 0.035601564 0.0083048278
0.4661631 0.034141358 0.0098906038
0.46835351 0.032859698 0.011634111
0.33471662 0.037742414 0.010657844
0.33700529 0.038539253 0.0089462018
0.46281767 0.038460325 0.0090492647
0.46529454 0.037663061 0.010741577
0.32746297 0.041353773 0.011833683
0.33555171 0.040564653 0.0116255
0.33819321 0.041837856 0.010156373
0.34081605 0.042975828 0.0086276112
0.45916763 0.042884003 0.0087480536
0.46177182 0.041782033 0.010309129
0.46445316 0.04032984 0.011626327
0.33918589 0.044766441 0.011340021
0.34184697 0.046081066 0.0098725529
0.34450477 0.047407579 0.0084372805
0.45550999 0.047251258 0.008417137
0.45810562 0.046042096 0.0099019362
0.46064556 0.044833604 0.011364118
0.34297842 0.049250804 0.011092883
0.3456063 0.050298996 0.0094786286
0.34821367 0.051811244 0.0082304468
0.45165154 0.051780026 0.0083853789
0.45440671 0.050341994 0.0094870823
0.45700267 0.04927006 0.011088502
0.34659189 0.05333592 0.010781731
0.34966859 0.054541837 0.0095028821
0.35253778 0.055545624 0.0084710717
0.44728148 0.055411424 0.0084561761
0.45028922 0.054327346 0.009557154
0.45339617 0.053366978 0.010893166
0.35065222 0.057079908 0.011138047
0.35387945 0.058068119 0.0098336861
0.35704726 0.059182338 0.0086992355
0.44278285 0.059298653 0.0087532438
0.44601989 0.058096439 0.009920666
0.44922838 0.056962833 0.011125516
0.35511395 0.060640555 0.01133102
0.3581945 0.061776362 0.010262816
0.36139375 0.062831014 0.0090485308
0.36431372 0.063906938 0.008169733
0.43547288 0.063641556 0.0082704425
0.43856663 0.062864572 0.0090070702
0.44180834 0.061850902 0.01031439
0.44487736 0.060732663 0.011437614
0.35957038 0.064283974 0.011626838
0.36229122 0.065294571 0.010732125
0.36597359 0.066174582 0.0098287715
0.36977005 0.066969544 0.0090700947
0.37290716 0.067536362 0.0083512245
0.4269388 0.067592397 0.0084263654
0.43026483 0.06692908 0.0091560595
0.4340401 0.066063836 0.0099336095
0.43770835 0.065205671 0.0107206
0.44041887 0.064392135 0.011620102
0.36701375 0.068300441 0.011639298
0.37021118 0.068965867 0.010980679
0.374129 0.069731452 0.010124938
0.37783656 0.070577741 0.0094597423
0.3817991 0.071310058 0.008744061
0.38585669 0.071653143 0.0084441537
0.38948616 0.071831189 0.008194562
0.39239818 0.071966521 0.0081488844
0.40792722 0.071974605 0.0082137818
0.41072509 0.071786985 0.0082509862
0.41429913 0.071501046 0.0084764911
0.41814357 0.071261957 0.0088099614
0.42220789 0.070660464 0.0094627887
0.42587888 0.069838382 0.010234511
0.42968699 0.068945892 0.010988339
0.43287325 0.068330176 0.011674102
0.37597641 0.072288178 0.01189351
0.37843046 0.072614022 0.01134384
0.38215315 0.073167689 0.010695778
0.38606361 0.073418826 0.010399027
0.39001846 0.073725864 0.010203062
0.39400005 0.07404153 0.010024704
0.39797762 0.074369967 0.0098494794
0.40207925 0.074408971 0.0097603379
0.40597096 0.074040547 0.0099447453
0.40987918 0.073671475 0.010149453
0.41392708 0.073354259 0.010433136
0.41796172 0.073058031 0.010748209
0.42151895 0.072693773 0.011267988
0.42415762 0.072240621 0.011888186
0.39581212 0.076029152 0.011967197
0.3986845 0.076187491 0.011719632
0.401768 0.076203115 0.011696726
0.4047676 0.076037824 0.011933245
0.39853492 -0.080103129 0.015889898
0.3758482 -0.076270431 0.015845409
0.37847057 -0.076591328 0.015344469
0.38213789 -0.07691703 0.014965523
0.3860583 -0.077162996 0.01459536
0.39006016 -0.077490807 0.014312645
0.39399868 -0.077773988 0.013986869
0.39798832 -0.07828062 0.013958863
0.4020313 -0.078182988 0.014013893
0.40599364 -0.077757403 0.014082262
0.4099431 -0.077450454 0.014285602
0.41392693 -0.077169552 0.014524424
0.41785064 -0.076943144 0.014837948
0.42140716 -0.076551616 0.015411321
0.36728689 -0.072318465 0.015720274
0.37039772 -0.072921745 0.014984517
0.37415111 -0.073751368 0.014140788
0.3777853 -0.074669726 0.013497286
0.3818633 -0.075174458 0.012964904
0.38573614 -0.075445332 0.012635362
0.38945052 -0.075736806 0.012367962
0.39246896 -0.07589063 0.012116991
0.40761244 -0.075881205 0.012064734
0.41043779 -0.075667441 0.012266161
0.414242 -0.075476736 0.012575632
0.41818458 -0.075240068 0.012902146
0.4221656 -0.074574172 0.013562143
0.42587695 -0.073675781 0.01422001
0.4296149 -0.072913855 0.015044956
0.43275955 -0.0722657 0.015722433
0.35918167 -0.068569198 0.015543818
0.36224815 -0.069159932 0.014680019
0.36597145 -0.070072897 0.013932617
0.36970392 -0.070937842 0.013151182
0.3729414 -0.071658365 0.012452983
0.427165 -0.0715985 0.012501691
0.43029094 -0.070959128 0.013178853
0.43405327 -0.070092849 0.013898308
0.43777442 -0.069220528 0.014639707
0.44061399 -0.068451181 0.015572854
0.35490316 -0.06487786 0.015178116
0.35799599 -0.065986976 0.013989527
0.36152011 -0.067135304 0.012830058
0.36439824 -0.067814313 0.012229341
0.43558884 -0.067918107 0.012228792
0.43853551 -0.067087196 0.012857083
0.44192508 -0.065880433 0.014059195
0.44501474 -0.06478782 0.015235454
0.33742574 -0.06149039 0.015987249
0.35053846 -0.061180737 0.014936963
0.35379416 -0.06239295 0.013708933
0.35675475 -0.063378505 0.012474051
0.4432185 -0.063372865 0.012596964
0.44619051 -0.062271107 0.013676703
0.44936991 -0.061183367 0.01491823
0.45213839 -0.060141575 0.015907399
0.34337112 -0.056363933 0.015668284
0.34638539 -0.057471696 0.014529155
0.34954166 -0.058623098 0.013302569
0.35246041 -0.059725065 0.012271276
0.44768009 -0.059613042 0.012218113
0.45041215 -0.058669258 0.013269169
0.45368153 -0.057529315 0.014537171
0.45636874 -0.056482464 0.015659828
0.33972216 -0.052266989 0.015805565
0.34245265 -0.053668682 0.014450241
0.34528613 -0.054869071 0.012960004
0.45481685 -0.054682761 0.012984945
0.45748049 -0.053585026 0.014611674
0.32855156 -0.048817828 0.015297832
0.33883449 -0.049454082 0.014859366
0.3413468 -0.050438523 0.013222845
0.45597464 -0.051814608 0.012037898
0.45856878 -0.050397474 0.013297283
0.46113855 -0.049394585 0.014961735
0.3272467 -0.047604844 0.015673159
0.33513114 -0.045040827 0.015247712
0.33763665 -0.046221934 0.013720896
0.34020099 -0.047476087 0.012219611
0.45972338 -0.047672901 0.012388011
0.46229899 -0.046225563 0.013725907
0.46485007 -0.045011964 0.015225353
0.32358053 -0.041824773 0.015471467
0.32537246 -0.04133106 0.013533044
0.33139488 -0.04049845 0.015539654
0.33406553 -0.041957229 0.014065907
0.33660126 -0.043209713 0.012571835
0.46339086 -0.043224964 0.012544736
0.46596023 -0.041988686 0.014048308
0.46844682 -0.040782124 0.015566065
0.32233986 -0.037909489 0.015116287
0.32465082 -0.03864862 0.013191212
0.33072475 -0.037744228 0.014613598
0.33295217 -0.038682107 0.012866801
0.4671225 -0.038382996 0.012903166
0.46914056 -0.037775196 0.01477622
0.31987897 -0.033078808 0.015638433
0.32189712 -0.034708057 0.014297585
0.32767451 -0.032761581 0.015688419
0.32988152 -0.034100845 0.013905435
0.33225286 -0.035611 0.012117713
0.4677856 -0.035434633 0.012245204
0.46998161 -0.034029722 0.013963873
0.47224051 -0.032562569 0.015734417
0.31895173 -0.030141884 0.015355347
0.32157794 -0.030236777 0.012874572
0.32711431 -0.02967569 0.01498667
0.32906565 -0.030313913 0.013146088
0.47091916 -0.030235361 0.013226786
0.47289202 -0.02954503 0.015052888
0.31795806 -0.025903787 0.014651852
0.32032678 -0.026581183 0.012658437
0.32628819 -0.025902858 0.01423051
0.3283357 -0.026885847 0.012460831
0.47152773 -0.027078735 0.012427622
0.47369298 -0.025889996 0.014229489
0.3156648 -0.021248138 0.015287871
0.3173179 -0.021972954 0.013811535
0.32340667 -0.021413058 0.015411208
0.3254019 -0.022223338 0.013593247
0.47457209 -0.02219609 0.013512477
0.47650343 -0.021532733 0.015394055
0.31513321 -0.018137001 0.015431239
0.31711718 -0.018271552 0.013381182
0.3230015 -0.017941959 0.014880814
0.32474008 -0.018288821 0.012952883
0.47508204 -0.018077902 0.013016997
0.47682679 -0.017895082 0.01500962
0.31490719 -0.014053773 0.015096065
0.3171975 -0.013670375 0.012728489
0.32281807 -0.013992264 0.0145406
0.32453209 -0.014147014 0.0125752
0.47538111 -0.014078975 0.012703979
0.47711143 -0.013853132 0.014672874
0.31465045 -0.010223511 0.014885597
0.31676424 -0.0093422756 0.012622559
0.32253703 -0.0099216383 0.014297837
0.32433113 -0.010520662 0.012335591
0.47562203 -0.010299406 0.012384973
0.47739196 -0.0099008158 0.014348472
0.31427443 -0.0059041572 0.01473254
0.31629163 -0.0073324954 0.012844346
0.32229799 -0.0059809801 0.01402195
0.32430738 -0.0075555183 0.012036519
0.47585222 -0.006808538 0.012102248
0.47769049 -0.0059516313 0.014038116
0.31416526 -0.0016360974 0.014278034
0.31816107 -0.0017712738 0.014061371
0.32186276 -0.0020276511 0.013971757
0.47818241 -0.0020712761 0.014007418
0.48005342 -0.00067812094 0.015906747
0.31392527 0.0017521096 0.014452163
0.31891036 0.001900521 0.014833991
0.32176903 0.0020058276 0.013919407
0.47578907 0.0036266586 0.01204043
0.47804242 0.0019325819 0.014014102
0.31437519 0.0060348725 0.014591462
0.31639871 0.0074896049 0.01273822
0.32224041 0.0059817219 0.014006278
0.32432249 0.0078594517 0.012027942
0.47576964 0.0065160519 0.012170053
0.47760347 0.0059512383 0.014072295
0.31470311 0.010223501 0.014850503
0.31670386 0.010031075 0.0127866
0.32255825 0.010005753 0.014309586
0.32433116 0.010654464 0.012369817
0.47562745 0.01027049 0.012394433
0.47739083 0.0098978719 0.014383213
0.31516954 0.01377489 0.014850008
0.31726006 0.013660436 0.012735445
0.32291296 0.013950934 0.014543582
0.32460994 0.014168038 0.012604777
0.47540686 0.014106314 0.012672633
0.47716486 0.013873816 0.014693413
0.31514773 0.017458694 0.015438956
0.31732646 0.018059842 0.013279599
0.32307678 0.017851433 0.015018192
0.32479155 0.017975567 0.013037408
0.47513425 0.018086074 0.012959921
0.47687837 0.017899236 0.014945303
0.31561559 0.022062764 0.015646268
0.31760424 0.022101665 0.013653523
0.32346642 0.02143041 0.015328032
0.32533252 0.022087369 0.013501675
0.4744764 0.022070734 0.013631414
0.47654244 0.021221874 0.015438409
0.31780949 0.025633791 0.014668148
0.32142812 0.02621921 0.013983455
