# .PCD v0.7 - Point Cloud Data file format
VERSION 0.7
FIELDS x y z
SIZE 4 4 4
TYPE F F F
COUNT 1 1 1
WIDTH 1340
HEIGHT 1
VIEWPOINT 0 0 0 1 0 0 0
POINTS 1340
DATA ascii
0.43801495 0.026053494 0.0023111387
0.4418987 0.02604364 0.0023101128
0.44592616 0.026053371 0.00231186
0.45000929 0.026059316 0.0023089522
0.45397225 0.026124001 0.0023118302
0.45797238 0.026146373 0.00231088
0.46197444 0.026098313 0.0023104416
0.46608892 0.026051503 0.0023098513
0.47011426 0.026015734 0.0023092935
0.47390655 0.026008291 0.00231469
0.47795331 0.025969459 0.0023121482
0.48207688 0.025946042 0.002309799
0.48535919 0.025844343 0.0029934205
0.35190654 0.02849959 0.0038961552
0.35412294 0.029987685 0.0027312753
0.35795301 0.030070696 0.0023317356
0.36199185 0.03005782 0.002330086
0.36599702 0.030052278 0.0023314911
0.36986589 0.030041229 0.0023300166
0.3739922 0.030015521 0.0023200652
0.37791646 0.029949738 0.0023071412
0.38197535 0.029975435 0.002310392
0.38609198 0.029940922 0.0023065938
0.3900888 0.029995734 0.0023096737
0.39408615 0.030021003 0.0023085563
0.39813974 0.03013598 0.0023132993
0.40196082 0.030145487 0.0023061654
0.40579617 0.03010284 0.0023075221
0.40988922 0.02991854 0.0023119939
0.41394454 0.029913446 0.0023047414
0.4179917 0.029919161 0.0023109238
0.42194146 0.029930495 0.0023090274
0.42592421 0.029897571 0.0023081384
0.43007168 0.029920556 0.0023121352
0.4340581 0.030016253 0.002311497
0.43800837 0.029962789 0.0023104376
0.44188794 0.029967729 0.0023094027
0.44590968 0.029951904 0.0023120027
0.4500061 0.029922869 0.0023106749
0.45389688 0.029992932 0.0023118933
0.45794407 0.030044571 0.002310443
0.46195924 0.03004544 0.0023108434
0.46610934 0.030030865 0.0023103673
0.47014365 0.02997678 0.0023092863
0.47393242 0.030078309 0.0023155666
0.47794813 0.030009383 0.002311901
0.4820883 0.030031241 0.0023499068
0.48482043 0.029711315 0.0032393974
0.35496363 0.033860009 0.0030387167
0.35797003 0.034097027 0.0023331414
0.36199835 0.034082424 0.0023278673
0.3659966 0.034074593 0.0023290245
0.36983544 0.034015972 0.0023283439
0.37398571 0.033946093 0.0023224871
0.37789249 0.033933587 0.0023056273
0.38195592 0.033944115 0.0023093885
0.38609302 0.03405356 0.002308399
0.39005634 0.034106579 0.0023063826
0.3940919 0.034102105 0.0023066853
0.39812574 0.03412699 0.0023125601
0.40194491 0.034139488 0.0023049666
0.40588301 0.034023803 0.0023071014
0.40987217 0.033895895 0.0023128197
0.41393703 0.033917937 0.0023063971
0.41800299 0.033953283 0.0023135275
0.42195278 0.033994947 0.0023135412
0.42594326 0.033937577 0.0023099836
0.43002227 0.033922631 0.0023124157
0.43402508 0.033994354 0.0023107245
0.43800303 0.03396209 0.00231369
0.44189593 0.033973537 0.0023125582
0.44593298 0.033954065 0.0023135359
0.45002219 0.033982594 0.0023095468
0.45392948 0.03400502 0.0023144565
0.45794389 0.033999089 0.002313684
0.46195889 0.033994954 0.0023139892
0.46609801 0.033994149 0.0023143382
0.47008362 0.033943973 0.0023109699
0.47391465 0.034035925 0.0023162817
0.47794452 0.034007959 0.0023131957
0.48199636 0.034062941 0.0027256613
0.48416823 0.032584261 0.0037496954
0.35550052 0.03691845 0.0036967599
0.35789546 0.038119305 0.0026235108
0.36198768 0.038109567 0.0023309207
0.36599246 0.038096618 0.0023323647
0.36985442 0.037986625 0.0023295225
0.37391332 0.037833411 0.0023256894
0.37791392 0.037891418 0.0023044068
0.38199329 0.0378826 0.0023097245
0.38606632 0.03806952 0.002307422
0.39007005 0.038035791 0.0023069812
0.39408749 0.037946075 0.0023070397
0.39812192 0.037957437 0.0023129326
0.4019269 0.037975743 0.002306019
0.40584099 0.037880022 0.0023059752
0.40990099 0.03794799 0.0023125806
0.41391641 0.038021185 0.0023075538
0.41795829 0.038013209 0.0023137832
0.42193308 0.038061172 0.0023098227
0.42592478 0.038027156 0.0023074476
0.43002319 0.037959557 0.0023118111
0.43404827 0.037948158 0.002309449
0.43800586 0.038008757 0.0023105203
0.44187322 0.037956294 0.0023118146
0.44591811 0.037930299 0.0023142721
0.44996858 0.037980366 0.0023109259
0.45391145 0.038010556 0.0023097547
0.45793611 0.037957087 0.0023112758
0.46198857 0.038023982 0.0023124302
0.46609417 0.038079351 0.0023133398
0.47011003 0.038026545 0.0023102842
0.47391161 0.03798056 0.0023166044
0.4779579 0.037970494 0.0023161438
0.48118144 0.037886359 0.0030279933
0.35856107 0.04194016 0.0029043544
0.36199388 0.042131782 0.0023286033
0.36597756 0.042096429 0.0023301814
0.36988389 0.04195549 0.0023304746
0.37386927 0.04186542 0.0023322885
0.37797657 0.041859552 0.0023123324
0.38191792 0.041985396 0.0023109422
0.38606289 0.042052425 0.0023098858
0.39009166 0.042041145 0.0023097252
0.39409232 0.041927539 0.0023086655
0.39812782 0.041945517 0.0023144393
0.40194428 0.041933272 0.0023079512
0.4058288 0.04196506 0.0023088059
0.40984073 0.041990709 0.0023149217
0.41394147 0.042006567 0.0023096353
0.41797951 0.041982986 0.0023140141
0.42192516 0.041977149 0.0023126348
0.42597064 0.041971408 0.0023116725
0.43004042 0.042027645 0.0023135005
0.43402696 0.042014193 0.0023126805
0.43799722 0.042069584 0.0023144502
0.44189817 0.042014081 0.002311128
0.44590038 0.041988146 0.0023128667
0.45001358 0.041995179 0.0023132134
0.45392212 0.042020537 0.002315331
0.45792034 0.041953038 0.0023130488
0.46191576 0.041974556 0.0023142586
0.46608603 0.042037111 0.0023140679
0.47013646 0.042076871 0.0023125331
0.4739081 0.042066734 0.002318199
0.47806913 0.042044949 0.0025519521
0.48052141 0.041033756 0.0035962283
0.35927969 0.045160327 0.0034179853
0.3619743 0.046072036 0.0025456001
0.36601055 0.04598802 0.0023313549
0.36984801 0.045906559 0.0023286399
0.3738527 0.045881759 0.0023298769
0.37805557 0.045873296 0.002318236
0.38193744 0.046076346 0.0023097801
0.38604569 0.045988947 0.0023079058
0.39006239 0.046005361 0.0023087081
0.39406538 0.045930989 0.0023071829
0.39812908 0.045952436 0.0023138612
0.40193209 0.046012934 0.0023074502
0.40582713 0.046069186 0.0023068192
0.40984783 0.046036549 0.0023128784
0.41392297 0.045964345 0.0023057892
0.41794646 0.045938876 0.0023128982
0.42193553 0.045977075 0.0023132977
0.42589527 0.045992766 0.00230872
0.43002805 0.0460358 0.0023133671
0.43404365 0.046018567 0.0023109862
0.43800393 0.046015751 0.0023119263
0.44187936 0.046062715 0.0023134593
0.44591734 0.04604366 0.0023143722
0.44996813 0.046021994 0.0023094825
0.45391956 0.046027366 0.0023123438
0.45796639 0.046023671 0.0023120458
0.4619453 0.045996983 0.0023139657
0.46608648 0.045984901 0.002314179
0.47007304 0.046022706 0.0023111796
0.4739373 0.046041202 0.0023235872
0.47738591 0.045798097 0.0029544008
0.36284176 0.049400177 0.0031252904
0.36591014 0.050003659 0.0024072351
0.36985481 0.049924579 0.0023320673
0.37386468 0.049892195 0.0023331756
0.3779546 0.049965609 0.0023301572
0.38199615 0.050049458 0.0023145152
0.3860577 0.049990691 0.0023095608
0.39006612 0.049989197 0.0023106628
0.39408338 0.049938891 0.0023093903
0.39809641 0.049995091 0.0023167445
0.40194345 0.050043985 0.0023092371
0.40582693 0.050037872 0.0023089657
0.40986788 0.049985588 0.00231662
0.41394725 0.050019056 0.0023090821
0.41799033 0.049998831 0.0023167313
0.42193496 0.050056312 0.0023119827
0.42591155 0.050039757 0.0023116812
0.43005991 0.049950413 0.002313426
0.4340196 0.050010201 0.0023142218
0.43797588 0.050018817 0.0023153292
0.4418624 0.050059598 0.0023126446
0.44588119 0.049966838 0.002314901
0.44998839 0.050033946 0.0023110982
0.45391786 0.049951807 0.0023148118
0.45790255 0.049961921 0.0023121675
0.46191585 0.049902048 0.0023118688
0.46608287 0.049981695 0.0023145953
0.47009605 0.049948998 0.0023123997
0.47387516 0.049733341 0.0027566056
0.47636437 0.048537534 0.003670017
0.36644527 0.053652965 0.0029599783
0.36984244 0.053941332 0.0023347635
0.37384808 0.053908352 0.0023306769
0.37790486 0.054009743 0.0023279788
0.38207731 0.053991575 0.0023196584
0.38605371 0.054001644 0.0023086576
0.39005303 0.053973541 0.0023094721
0.39409053 0.053997785 0.0023086946
0.3982057 0.054100133 0.002309991
0.40203393 0.053989418 0.0023105668
0.4057869 0.054005433 0.0023077028
0.40988454 0.053950313 0.0023143811
0.41386479 0.054037087 0.0023091948
0.41796675 0.054048572 0.0023133985
0.42190734 0.054041937 0.0023121366
0.42594656 0.054057382 0.0023102001
0.42997301 0.05402251 0.0023135317
0.43401703 0.05405508 0.0023103573
0.43797305 0.053974051 0.0023131475
0.44189519 0.054048453 0.0023133049
0.44591364 0.053950232 0.0023155427
0.44998655 0.054011524 0.0023134018
0.45391327 0.053974308 0.0023141426
0.45792437 0.054030687 0.0023158598
0.4619475 0.053938586 0.0023149133
0.46605402 0.05395972 0.0023149
0.47014901 0.053991951 0.0026118371
0.47274378 0.052830968 0.0033993134
0.36752871 0.056355 0.0036122426
0.37000757 0.057770245 0.0028011224
0.37386045 0.057918854 0.0023348681
0.3779588 0.058053166 0.0023301572
0.38204896 0.058006167 0.002329767
0.38606453 0.058011323 0.0023103054
0.39005008 0.057935916 0.0023120681
0.39403364 0.05805108 0.0023112609
0.39820379 0.058084052 0.0023124225
0.40205598 0.057998516 0.0023142961
0.40584806 0.058017429 0.0023107601
0.40982026 0.058058299 0.002315691
0.41390103 0.05804684 0.0023094949
0.41793793 0.057926577 0.0023144591
0.42193919 0.057941105 0.0023142991
0.42586282 0.057989061 0.0023107319
0.43002939 0.057984818 0.0023130062
0.43405724 0.057994355 0.0023126628
0.43799984 0.057948936 0.0023130907
0.44182748 0.057972297 0.0023125189
0.44591835 0.057944871 0.0023145489
0.44997817 0.05797353 0.0023134681
0.4538891 0.057979926 0.0023145317
0.45791531 0.057993073 0.0023133641
0.46197003 0.058065329 0.0023140651
0.46605545 0.057992674 0.0024317703
0.46902606 0.057385676 0.0032281787
0.37120143 0.060490727 0.0035863128
0.37429902 0.061673887 0.0028556807
0.37792543 0.062075578 0.0023656897
0.3820017 0.062050324 0.0023329495
0.38618648 0.061976578 0.0023163883
0.39005703 0.061993346 0.0023097529
0.39407003 0.062082902 0.0023086704
0.39817709 0.062030271 0.0023110434
0.40206087 0.061949018 0.0023129152
0.40578243 0.06205906 0.0023091121
0.40984797 0.062106803 0.0023145906
0.4139331 0.062010676 0.0023083505
0.4179678 0.061997905 0.0023170044
0.42188519 0.061984729 0.0023136919
0.42593274 0.06191333 0.002312806
0.43003598 0.061959412 0.0023165941
0.43399391 0.06200308 0.0023140092
0.43796188 0.062015072 0.0023158484
0.44190866 0.062016357 0.0023143212
0.44587484 0.061964471 0.0023174831
0.44995728 0.061956391 0.0023126267
0.45393375 0.062009964 0.0023170717
0.45790288 0.061967984 0.0023159692
0.46191761 0.062038772 0.0025830858
0.46536282 0.061043277 0.003258538
0.37579954 0.064254425 0.0037890812
0.37836751 0.065256894 0.0030644992
0.38200527 0.066056646 0.0024828042
0.3861675 0.065871693 0.0023295446
0.3900336 0.066052958 0.0023138009
0.39405563 0.066071972 0.0023115228
0.3981944 0.065945305 0.0023115047
0.40203735 0.065946318 0.0023132148
0.40579179 0.066015348 0.0023088229
0.40983281 0.065925486 0.0023156919
0.41391459 0.065974206 0.0023094802
0.41796336 0.066035397 0.0023153354
0.42192173 0.06596861 0.0023135941
0.42589402 0.065975837 0.0023110788
0.42997685 0.065977536 0.0023139077
0.43399978 0.0659431 0.0023128949
0.43798447 0.066023089 0.0023147648
0.44183302 0.066044576 0.0023146423
0.44590932 0.066033021 0.002314562
0.4499695 0.066011198 0.0023127683
0.45387834 0.065975584 0.0023199907
0.4578006 0.0658658 0.0027627307
0.46087983 0.064692728 0.0034137135
0.38274005 0.068934605 0.0032519866
0.38618976 0.069831997 0.0027000534
0.39014238 0.070057042 0.0023688732
0.39404085 0.070006996 0.0023098413
0.39824042 0.06994918 0.0023134155
0.40202856 0.07002233 0.0023157215
0.40582651 0.06997095 0.0023114125
0.40986103 0.069954023 0.0023176782
0.41385007 0.070006534 0.0023118304
0.41795087 0.069954224 0.0023170009
0.4219287 0.069984294 0.0023163932
0.42588958 0.070040993 0.0023138495
0.43003207 0.070000693 0.0023154458
0.43400037 0.069980927 0.0023150074
0.43796727 0.070012629 0.002317474
0.44187164 0.070008606 0.0023153345
0.44588849 0.070064291 0.0023218896
0.45004171 0.070146032 0.0025803088
0.45375216 0.069352284 0.0029532991
0.45647323 0.068363145 0.0036571405
0.3877039 0.072255827 0.0038567192
0.39051655 0.072829969 0.0032770059
0.39421773 0.07351964 0.0027853756
0.39812532 0.074051276 0.0024925133
0.40210977 0.073981941 0.0023129766
0.40587664 0.073926494 0.002310368
0.40981483 0.074029982 0.002316972
0.41390762 0.073977552 0.0023091692
0.41794333 0.07398998 0.0023169485
0.42195246 0.074039437 0.0023106409
0.42598549 0.073967084 0.0023143122
0.42998528 0.074048959 0.0023162635
0.43400919 0.074047573 0.0023131776
0.43799299 0.07405562 0.002359665
0.44183466 0.073996715 0.0027177818
0.44568941 0.073191606 0.0030349428
0.44893771 0.072428055 0.0035282103
0.39900848 0.076575771 0.0034896713
0.4022153 0.077034317 0.0030154749
0.4059799 0.077276766 0.0028544008
0.4099994 0.077616744 0.0027980469
0.41398266 0.077850737 0.0027290515
0.41794133 0.078056522 0.0026350333
0.42193255 0.077989362 0.0026939334
0.4259572 0.077747904 0.0027818785
0.42993894 0.07744424 0.0028055657
0.43393293 0.077214368 0.0029695162
0.43763351 0.076777436 0.0032415264
0.44063881 0.076153062 0.0038143718
0.4184877 0.080073491 0.003884787
0.40315628 -0.060207184 0.0077939853
0.40633714 -0.060466226 0.0076641645
0.41012144 -0.0605697 0.0072435555
0.41410112 -0.060865011 0.0070020095
0.41808152 -0.061130743 0.0067610447
0.42190653 -0.061001074 0.0068806694
0.42590961 -0.06073416 0.0071704346
0.42998123 -0.060424399 0.007417067
0.43384853 -0.060217429 0.0077541564
0.43646502 -0.060027704 0.0079575712
0.39156428 -0.056171425 0.0077455766
0.39431486 -0.056774154 0.0071808654
0.39820865 -0.057644237 0.0064341365
0.40199259 -0.058282357 0.0059448318
0.40591022 -0.058574628 0.0056940522
0.40990636 -0.058662891 0.0052232305
0.41387469 -0.05901904 0.0050440603
0.4178693 -0.059266668 0.0047893259
0.42203596 -0.059128564 0.0048904424
0.42608693 -0.058839265 0.0051539452
0.4299714 -0.05858482 0.0054246578
0.43404397 -0.05833685 0.0057404609
0.43801576 -0.057898343 0.006078647
0.44175053 -0.057156369 0.0068274797
0.44533053 -0.056446131 0.0076038884
0.38329268 -0.05254399 0.007538816
0.38638192 -0.05321873 0.0069181332
0.39009807 -0.053910475 0.006060774
0.39386281 -0.054679181 0.0052675973
0.39749178 -0.055517547 0.0046120971
0.43914318 -0.055644363 0.0042437925
0.44240323 -0.055069458 0.0050114971
0.44610706 -0.054278359 0.0057533961
0.44982982 -0.053500086 0.0065192836
0.45353273 -0.052701749 0.0072634518
0.3786681 -0.048920885 0.0072410558
0.38203597 -0.050100528 0.0060454523
0.38578025 -0.051055249 0.0050088288
0.38882685 -0.05162666 0.0043342751
0.44777578 -0.05191569 0.0041494672
0.45044744 -0.051368706 0.00465373
0.4542689 -0.050399471 0.0054144654
0.45758802 -0.049550008 0.0067248223
0.46037453 -0.048488349 0.0076607415
0.3717024 -0.044125229 0.0076915738
0.37450749 -0.045267064 0.0068452167
0.3778227 -0.04630613 0.0055468101
0.38080478 -0.047374725 0.0045113927
0.45572865 -0.047803842 0.0040411181
0.45856628 -0.046858929 0.0050620786
0.46176675 -0.045839489 0.0062933625
0.4649182 -0.044652831 0.0073642964
0.3674179 -0.040601209 0.007582482
0.37030262 -0.041630778 0.0064906557
0.3735925 -0.04260828 0.0051612984
0.37627706 -0.043771897 0.0043688249
0.46293491 -0.043143149 0.0047549116
0.46605149 -0.04204455 0.0058594011
0.46917936 -0.041086417 0.0071153846
0.36383322 -0.036453038 0.0079074847
0.36640549 -0.037673749 0.0064663701
0.36927414 -0.038813435 0.0048794816
0.46735725 -0.039408769 0.0044671199
0.47022942 -0.038194403 0.0057848026
0.47286072 -0.037077267 0.0073004272
0.36268541 -0.033518769 0.0069267587
0.36534619 -0.034386836 0.0052077025
0.47128943 -0.035027046 0.0046096831
0.47388175 -0.033930153 0.0061017717
0.47646907 -0.032708008 0.0075370418
0.35910884 -0.02924907 0.0071860761
0.36172512 -0.0302928 0.0056185978
0.36435446 -0.031634562 0.0042727813
0.47499746 -0.030668518 0.0049113682
0.47761706 -0.029658478 0.0064925519
0.48024195 -0.028241206 0.0078381645
0.35558364 -0.024901478 0.0075587621
0.35807824 -0.026090667 0.0059964568
0.36073536 -0.02735978 0.0045443946
0.47866338 -0.0263738 0.0052306983
0.48115772 -0.02555524 0.0069084563
0.35490587 -0.021765316 0.0069336467
0.35704342 -0.022296075 0.0050125686
0.47959885 -0.023372943 0.0042958562
0.48191306 -0.022015285 0.0060227686
0.4842127 -0.020602996 0.0077533382
0.35194153 -0.016290084 0.0075872391
0.35414124 -0.017966395 0.0061214338
0.35631776 -0.018969912 0.0043757055
0.48274574 -0.018269736 0.0052993749
0.48486462 -0.017691359 0.0071870377
0.35126773 -0.013708868 0.0072400849
0.35327521 -0.014181326 0.0054180813
0.38630047 -0.012939104 0.0058462154
0.41365531 -0.012941604 0.0059833294
0.48340684 -0.014911762 0.0045872713
0.48560524 -0.013804454 0.0063137114
0.35049513 -0.0098362872 0.0063975356
0.35262594 -0.010498495 0.004547786
0.38629949 -0.0098922262 0.0060022874
0.41365528 -0.0099615725 0.0061732349
0.48645735 -0.010148294 0.0056485827
0.48861364 -0.0092326356 0.0074351043
0.34780547 -0.0044679944 0.0079293055
0.34982973 -0.0060161236 0.0059495778
0.38629642 -0.0058882721 0.0061059538
0.41365531 -0.0060092583 0.006116603
0.48702678 -0.0061172252 0.0049296534
0.48892197 -0.0059618033 0.0069327126
0.34774157 -0.0018480981 0.0076229982
0.34955072 -0.0021700205 0.0056979731
0.3862963 -0.0020446968 0.0060982173
0.41365531 -0.0020552531 0.0060599712
0.48733494 -0.0020900178 0.0046871067
0.48919329 -0.0019149316 0.0066489982
0.34739417 0.0019976802 0.0074342685
0.34931755 0.0017831121 0.0053924532
0.38629469 0.001870917 0.0061219539
0.41365531 0.0020154135 0.0061825002
0.48755106 0.0016440927 0.004396969
0.48949134 0.0021101579 0.0063980115
0.34718809 0.0061330912 0.0070662689
0.34906229 0.0057267486 0.0051112045
0.38629696 0.0059863334 0.0060378676
0.41365531 0.0059692715 0.0061258734
0.48772296 0.0050458149 0.0041044829
0.48970747 0.0061082682 0.0060707256
0.34698933 0.0099246129 0.0067857681
0.34881544 0.0097805131 0.0048445212
0.38629463 0.010122101 0.0061324616
0.41365552 0.010052715 0.0061294851
0.49009386 0.010020034 0.0059846211
0.49211717 0.010970453 0.0079852948
0.34708756 0.013825092 0.0069447379
0.34898582 0.013969945 0.0049278913
0.38629484 0.013011938 0.0060888273
0.39091316 0.01405824 0.0054728608
0.39270386 0.014057524 0.0074991025
0.40285802 0.014108908 0.007410855
0.40618378 0.014109447 0.0061290194
0.41002178 0.014110071 0.0046497635
0.41365576 0.013047195 0.0061324998
0.48776168 0.015493879 0.0040461943
0.48984924 0.013942265 0.0060098614
0.34731466 0.017965142 0.0072887293
0.34919339 0.018022552 0.0052746464
0.48764864 0.018372985 0.0042819711
0.48954388 0.017957155 0.0062441742
0.34761351 0.021785533 0.0075219739
0.34950948 0.022042515 0.0055032438
0.48740166 0.02203745 0.0045370338
0.48934042 0.021931624 0.0065880395
0.34778473 0.025241947 0.0078194765
0.34968567 0.026063891 0.0058827884
0.48720017 0.026042217 0.0048743389
0.48900142 0.025857724 0.0067833564
0.3501558 0.029944273 0.0061892141
0.35237089 0.030991338 0.0043506869
0.48669961 0.030176558 0.0052861613
0.48875552 0.029618049 0.0072028101
0.35098925 0.033775408 0.0068806107
0.35309711 0.034305632 0.0049919281
0.4836711 0.035322472 0.0043846769
0.48594877 0.033989321 0.006084369
0.48825717 0.032489307 0.0077906507
0.3515946 0.036952648 0.0076077073
0.35379612 0.038093001 0.0058639841
0.35609776 0.039854579 0.0043115756
0.48300669 0.038393594 0.0049679657
0.48514161 0.037822127 0.0068669557
0.35457832 0.041761164 0.006600311
0.35674307 0.042457968 0.0047309808
0.47994024 0.0437335 0.0040626307
0.4822306 0.042188894 0.0057664732
0.48446244 0.041145179 0.0075796423
0.35533068 0.045392197 0.007364986
0.35765445 0.046283197 0.0055639353
0.36043143 0.047863994 0.0041074548
0.47906461 0.046605621 0.0047342824
0.48142186 0.045810673 0.00649868
0.35862723 0.049612734 0.0067917751
0.36131671 0.050439164 0.0050243684
0.47537935 0.051092777 0.0044977563
0.47800937 0.049949057 0.0059908712
0.48066476 0.048809756 0.0075346553
0.3596794 0.05221615 0.0076235877
0.36219728 0.053700596 0.006418894
0.36486235 0.054715771 0.0047986577
0.47166067 0.055641122 0.0043033944
0.47428969 0.05420284 0.0055995751
0.47698426 0.053111888 0.0072024907
0.36338258 0.056769006 0.0074363421
0.36601701 0.057991158 0.0059649143
0.36858192 0.059111193 0.0045136707
0.47058269 0.058467917 0.0052328873
0.4733105 0.057452369 0.006910047
0.36707994 0.061229378 0.0072143949
0.36989775 0.062138807 0.0058452426
0.37300879 0.063208915 0.0047069774
0.46364009 0.06355948 0.0042450824
0.46643579 0.06260024 0.0052454416
0.4696207 0.061623078 0.0066373479
0.47221524 0.060440175 0.007889363
0.37099057 0.064787805 0.0074011157
0.37421554 0.06587752 0.0061995019
0.37748304 0.066855587 0.0048878817
0.45913252 0.067283213 0.0044605252
0.46215662 0.066279434 0.0055853422
0.4655686 0.06524872 0.0069546113
0.46832904 0.064143836 0.0078142453
0.37533477 0.068379678 0.0076167081
0.37832993 0.069504693 0.0066040298
0.38165557 0.070548132 0.0053059286
0.38501424 0.071599349 0.0043090894
0.45193002 0.071721889 0.0041114157
0.45455843 0.071103245 0.0047844863
0.45804778 0.069949642 0.0060329488
0.46130854 0.068891488 0.0072776736
0.37991637 0.072177507 0.0078842724
0.38254452 0.073056117 0.0069566686
0.38606271 0.073848777 0.0061092759
0.38979113 0.074594647 0.0053030876
0.3936075 0.075452462 0.0045841909
0.4432283 0.075616971 0.0043383734
0.44626307 0.074958093 0.0049336073
0.45008656 0.074193612 0.0057527176
0.45379829 0.073481292 0.006614408
0.45680943 0.072529368 0.0074376245
0.38762763 0.076244086 0.0078507755
0.39042825 0.076727271 0.0071759801
0.39415699 0.077554867 0.0064510698
0.3978433 0.078297921 0.0056655561
0.40185028 0.078916937 0.0049731894
0.40597278 0.079271831 0.0047537885
0.40978757 0.079552315 0.004524176
0.41323218 0.07974498 0.0042518931
0.42282113 0.079814121 0.0040874919
0.42610991 0.079717234 0.0044286493
0.43008843 0.079349764 0.0045934911
0.43417948 0.079111263 0.0049106004
0.43819764 0.078642145 0.0053101256
0.44196695 0.077887163 0.0060836426
0.44574228 0.077114001 0.0068771658
0.44895411 0.076457009 0.0075684749
0.39884216 0.080450781 0.0074184672
0.40205148 0.080838948 0.0069896225
0.40603349 0.081160165 0.0067701088
0.41009319 0.081471719 0.0065289154
0.41407436 0.081683405 0.0061942302
0.41804716 0.081983209 0.0059992578
0.4219465 0.081867658 0.0061401497
0.42596871 0.081529953 0.0063427868
0.42990464 0.08129584 0.0066500907
0.43383026 0.080966048 0.0068511562
0.43772194 0.080690973 0.0072611771
0.44042408 0.080184191 0.0077521568
0.40685508 -0.064215183 0.011778832
0.41019773 -0.064347178 0.011452311
0.41417405 -0.064733721 0.011294706
0.41815788 -0.064980246 0.011030093
0.4219622 -0.064780056 0.011089828
0.42578706 -0.064566106 0.011420086
0.42912924 -0.064367086 0.011693346
0.43269074 -0.064130165 0.011868257
0.3913638 -0.060124531 0.01185493
0.39445031 -0.060746651 0.011256423
0.39822415 -0.0615335 0.010451279
0.40207839 -0.061994314 0.010000058
0.40594232 -0.062399343 0.0098880064
0.4099735 -0.062589936 0.009499155
0.41397017 -0.062915094 0.0092730178
0.41798037 -0.063146025 0.0089825308
0.42207819 -0.06302318 0.0091354782
0.42606884 -0.062768199 0.0094330646
0.43007579 -0.062494274 0.0097244345
0.43397847 -0.062204368 0.0099771991
0.43794253 -0.06182956 0.010237928
0.44165787 -0.061097853 0.010863361
0.44500828 -0.060414616 0.011614917
0.38290042 -0.056327585 0.011624962
0.38620797 -0.057034474 0.01094164
0.39014494 -0.057847012 0.010080262
0.39386272 -0.058737349 0.0093911728
0.39741632 -0.059469312 0.0086348727
0.4001947 -0.059975188 0.0080508757
0.43906307 -0.059774458 0.0083693443
0.44228715 -0.059086427 0.0090274997
0.44611904 -0.05824494 0.0098118894
0.44985604 -0.057383224 0.010529907
0.45335823 -0.056662139 0.011304979
0.37857947 -0.053058259 0.010988231
0.38186684 -0.054128747 0.009886031
0.38568911 -0.055049803 0.0090800058
0.38877204 -0.055658247 0.0083984211
0.45032883 -0.055347454 0.0086082853
0.45422798 -0.054604441 0.0095174406
0.45765814 -0.053663839 0.01043914
0.46068105 -0.052468788 0.011428051
0.3715094 -0.048426833 0.011715323
0.3742817 -0.049410734 0.010672675
0.37753683 -0.050454725 0.0093627758
0.38057491 -0.051647067 0.0083446475
0.45881057 -0.05105377 0.0088668196
0.46200243 -0.04993635 0.010064265
0.46517268 -0.048786182 0.011222852
0.36707425 -0.044702724 0.011416779
0.37018982 -0.045763034 0.01021628
0.37354499 -0.046893649 0.0089141456
0.46310854 -0.047349703 0.0085102161
0.46622947 -0.046255678 0.0096717458
0.46948028 -0.045161776 0.010936918
0.47203529 -0.04422256 0.01187135
0.3633571 -0.040914889 0.011390683
0.36591721 -0.042122036 0.010051398
0.368936 -0.043128129 0.0087195104
0.46759006 -0.0435054 0.0081601264
0.47043622 -0.042568818 0.0092872316
0.47338292 -0.041498274 0.010810994
0.35967445 -0.036381476 0.011565308
0.36221099 -0.037832305 0.01027984
0.36489266 -0.038987912 0.0086665582
0.47172618 -0.039835081 0.0081722438
0.47437778 -0.038257048 0.0094497809
0.47696114 -0.037402425 0.011187809
0.3585808 -0.033634316 0.010647519
0.3611491 -0.034596823 0.0089976359
0.47555238 -0.03538214 0.0085352696
0.47807842 -0.034095895 0.0099055171
0.48067024 -0.032824878 0.011362732
0.3548643 -0.029267486 0.010977876
0.35748705 -0.030395746 0.0093946718
0.36010331 -0.031999394 0.0081893168
0.47910058 -0.030924087 0.0086337766
0.4817802 -0.029756794 0.010239658
0.48433524 -0.02854087 0.01169489
0.35167193 -0.024801873 0.011614281
0.35386196 -0.026006121 0.0098835845
0.3563683 -0.02747721 0.0083831111
0.48292437 -0.026352471 0.0090483855
0.48510328 -0.025746433 0.010907968
0.35095587 -0.021704912 0.011001239
0.35303918 -0.022345649 0.0090891048
0.48365444 -0.023248754 0.0082974778
0.48587731 -0.022028726 0.010089832
0.48806667 -0.020654969 0.011846735
0.35017261 -0.017903393 0.010167538
0.35240361 -0.019053899 0.0083380109
0.48669183 -0.018355763 0.0093500633
0.48872378 -0.017644603 0.011181501
0.34723455 -0.013531936 0.011352745
0.34930214 -0.014248479 0.0094896397
0.38629711 -0.01304625 0.0098594865
0.41365519 -0.01308768 0.0096612647
0.48740226 -0.014780308 0.0085456884
0.48947331 -0.013854437 0.010311432
0.33884123 -0.0087077906 0.010784667
0.34010032 -0.0098160831 0.009870504
0.34668586 -0.0098771611 0.010349724
0.3487047 -0.010763346 0.0086064693
0.38629699 -0.010044482 0.0096711703
0.41365522 -0.0099789659 0.0096049942
0.49041772 -0.010188763 0.0097196251
0.49243549 -0.0092285238 0.011488057
0.3374733 -0.0071068271 0.011777031
0.34049195 -0.0044205212 0.0089643961
0.3461062 -0.006093381 0.010051285
0.3863005 -0.0059473487 0.0099555738
0.41365522 -0.0059415167 0.0097253872
0.49093136 -0.0060509094 0.0091508199
0.49273074 -0.0059263124 0.011163916
0.33786172 -0.0020064644 0.010879614
0.34383994 -0.0011583522 0.011880583
0.34580183 -0.0020642641 0.0097932899
0.38630122 -0.00192826 0.009886262
0.41365525 -0.0020233358 0.0096697379
0.49119988 -0.0021011163 0.008872563
0.49300763 -0.0019118083 0.010882128
0.33867478 0.0028565745 0.0096688922
0.3436892 0.0020668029 0.011563087
0.3454091 0.0018887543 0.009651565
0.38630006 0.0019549867 0.0098829018
0.41365525 0.002024451 0.0096728364
0.49148324 0.0018576288 0.0086046401
0.49320093 0.0021109553 0.010500078
0.33565918 0.0059465826 0.011870652
0.33654895 0.0046839765 0.011221677
0.34341872 0.0060935928 0.011279661
0.34521624 0.0058140922 0.0092784539
0.38630104 0.0058392603 0.009871209
0.41365531 0.0060721734 0.0096762562
0.49171171 0.0058214548 0.0082851099
0.49355584 0.006133554 0.010301693
0.33726957 0.010042628 0.010077894
0.34311089 0.010021836 0.011086383
0.34494898 0.0099250982 0.0090193674
0.38630053 0.0099758515 0.0098647373
0.41365564 0.0099930642 0.0096214972
0.49193132 0.0086244792 0.0081032133
0.49380887 0.010132304 0.010059796
0.33579633 0.015710285 0.011750959
0.33819595 0.012486364 0.0093928268
0.3432675 0.013810896 0.011197539
0.34507269 0.01404941 0.009188287
0.38630027 0.013026434 0.0098599531
0.39133528 0.014106669 0.011809712
0.39422458 0.014083719 0.010282458
0.39765871 0.014097713 0.0097409952
0.40081164 0.014108577 0.0081995772
0.41365582 0.012935633 0.0098088076
0.49181449 0.014422886 0.0082001062
0.49366292 0.014011835 0.010215911
0.33809763 0.01791518 0.010061711
0.34356821 0.017722201 0.011442401
0.34532607 0.017995715 0.0094886832
0.49155977 0.018115148 0.0084596882
0.49331596 0.017925905 0.010400238
0.33729064 0.022574591 0.011247977
0.34380296 0.021682033 0.011762875
0.34566018 0.022017537 0.009715409
0.49132261 0.022186739 0.0087978337
0.49309471 0.021937408 0.010750959
0.33877125 0.025632774 0.01036234
0.34045085 0.025358519 0.0089356788
0.34594038 0.025985036 0.0099877017
0.49101615 0.026109243 0.0090252711
0.49283043 0.025917007 0.011045082
0.33854136 0.029241845 0.01092813
0.34065467 0.031065244 0.0093865301
0.3464303 0.029868975 0.01011664
0.34841585 0.031196717 0.0084223757
0.49068722 0.030259853 0.0094725722
0.49256495 0.029695751 0.011367475
0.33921188 0.034185253 0.011340391
0.34704331 0.033724062 0.010951311
0.34900489 0.034211978 0.0090957694
0.48764652 0.035297915 0.0083547886
0.4898113 0.034075942 0.010082488
0.49218345 0.032491807 0.011890281
0.34093362 0.038221516 0.011301568
0.34763721 0.036596786 0.011582055
0.34985909 0.038041718 0.0098655941
0.35212922 0.039514635 0.0081513571
0.48700204 0.038365394 0.0089994483
0.48901019 0.037841588 0.01088561
0.34267062 0.042293496 0.011262408
0.35064998 0.041769248 0.010661308
0.35269374 0.042368278 0.0087750517
0.48393235 0.043822125 0.0080977483
0.48620352 0.042167351 0.0098166782
0.48843428 0.04098814 0.011647307
0.34398296 0.045370068 0.011232823
0.34486309 0.047433279 0.011212969
0.35142413 0.045291588 0.011383611
0.35354975 0.046147663 0.0095201666
0.48330444 0.046569053 0.0086999107
0.48539737 0.045831967 0.010563864
0.34619474 0.050546952 0.011180475
0.35448757 0.049704734 0.010542865
0.35697651 0.05061562 0.0089107761
0.47959271 0.051457912 0.0083754333
0.48216632 0.05013787 0.0097699109
0.48468965 0.049059384 0.011356446
0.35556161 0.052774355 0.011679392
0.35814103 0.053901445 0.010134511
0.36074236 0.055147823 0.0086574657
0.47857058 0.054370116 0.0094608385
0.48113197 0.053313464 0.011038459
0.35918346 0.05707711 0.011401595
0.36181608 0.058189735 0.0097883279
0.36445001 0.05949286 0.0083290152
0.47484508 0.058579914 0.0090146465
0.47739053 0.057581175 0.010615462
0.36294937 0.06139056 0.010986532
0.36558518 0.062359154 0.0093091968
0.36842725 0.063672446 0.0081576407
0.47109279 0.062915362 0.008738027
0.4736965 0.061879512 0.010262576
0.47627375 0.060614057 0.011725392
0.3639172 0.064011082 0.011942076
0.3664721 0.065176763 0.010856918
0.36970216 0.066336848 0.0096449666
0.37272775 0.067437366 0.0085518649
0.46654236 0.066798143 0.0089678848
0.46980798 0.065712936 0.010249283
0.47272554 0.064719819 0.011436468
0.37088582 0.068987548 0.011222202
0.37408236 0.070070252 0.0099800993
0.37725767 0.071065344 0.008683783
0.45942295 0.071580246 0.0083588175
0.46238196 0.070508666 0.0094362954
0.46560705 0.069447294 0.010711744
0.46833873 0.068424597 0.011689256
0.37520725 0.072509944 0.011406885
0.37814251 0.073625654 0.010376364
0.38167483 0.074761748 0.0090800952
0.38503894 0.075628892 0.008339569
0.45162827 0.075888358 0.0081056468
0.45454139 0.075272314 0.0087191947
0.4581416 0.074125558 0.0097606704
0.46128416 0.073172159 0.011079823
0.37958008 0.076262102 0.011764584
0.38235918 0.07708852 0.011043219
0.38616624 0.077851184 0.010164579
0.38979784 0.078508198 0.0092704985
0.39352426 0.079359688 0.008548311
0.39610779 0.079913616 0.0080117881
0.44336927 0.07961715 0.0084191533
0.44631231 0.079000354 0.0090476898
0.45004386 0.078213014 0.0098442947
0.45377353 0.077357747 0.0105698
0.45711455 0.07663513 0.011392021
0.38738626 0.080041789 0.011947349
0.3903448 0.080585651 0.011219574
0.39412594 0.08143422 0.010461316
0.39790481 0.082325086 0.0097604748
0.40195251 0.082940847 0.0093195532
0.40581802 0.083194077 0.0090286694
0.40984491 0.083330199 0.0085901506
0.41371992 0.083685286 0.0084273396
0.41736928 0.083833426 0.0081119882
0.42264512 0.083727226 0.0082535585
0.42610601 0.083486535 0.0084901797
0.43015477 0.083236322 0.0088040773
0.43414658 0.082953773 0.009076694
0.43821564 0.082596794 0.0094425594
0.44187641 0.081876121 0.010140466
0.44571975 0.081038006 0.010934039
0.44888461 0.08042153 0.011669156
0.39894247 0.084473781 0.011618783
0.40202951 0.08471854 0.01132012
0.40620512 0.084956869 0.010966399
0.41005594 0.085074574 0.010524462
0.4140656 0.085457005 0.010354277
0.41810283 0.085741073 0.010122299
0.42197397 0.085544124 0.010190456
0.42599279 0.085283533 0.010493707
0.42990017 0.085037969 0.010800025
0.43393543 0.084763594 0.01109441
0.43776679 0.084490657 0.011400613
0.44042879 0.084267847 0.011982952
0.411136 -0.068235092 0.01583126
0.41422862 -0.068374626 0.015556475
0.41819102 -0.068564266 0.015214949
0.42178482 -0.068463698 0.015373519
0.42576173 -0.06822744 0.015713371
0.42879546 -0.068021752 0.015910611
0.39464471 -0.06463524 0.015404264
0.39825004 -0.065224506 0.014525012
0.40209246 -0.065626703 0.014191544
0.40598765 -0.065914251 0.013933754
0.40992966 -0.066400833 0.013890321
0.41387492 -0.066650577 0.013568174
0.41793784 -0.066919841 0.013294059
0.42200562 -0.066703141 0.013325515
0.4260993 -0.066530943 0.013759279
0.43005797 -0.06617438 0.013957285
0.43395358 -0.065719582 0.014029247
0.4379442 -0.06543909 0.014333266
0.44165987 -0.064870469 0.014969402
0.44475335 -0.064281352 0.015726957
0.38345572 -0.060283411 0.01567637
0.38637152 -0.060920563 0.01509526
0.39020574 -0.06173249 0.014235321
0.39383432 -0.06263978 0.013579916
0.397524 -0.063354135 0.012713702
0.40112582 -0.063843012 0.01226091
0.43560269 -0.063956425 0.012169585
0.43838811 -0.063661024 0.012394574
0.4422867 -0.062926725 0.013115933
0.44601184 -0.06209847 0.013900585
0.44974324 -0.06122192 0.014641526
0.45321941 -0.060483854 0.015410258
0.37595281 -0.05616368 0.015670344
0.37859055 -0.057199117 0.014872607
0.38196617 -0.058077049 0.013969176
0.38570997 -0.058925375 0.013189891
0.38906497 -0.059652567 0.012470985
0.44743693 -0.059963942 0.012208045
0.45036152 -0.059290253 0.012795973
0.45417196 -0.058465578 0.013622767
0.45777977 -0.05755591 0.014358884
0.46078861 -0.05664115 0.015439852
0.37136495 -0.05242056 0.015585474
0.37436596 -0.053565621 0.014475424
0.37752977 -0.054719701 0.013267956
0.38046667 -0.055781931 0.012106899
0.45896107 -0.055184428 0.012730647
0.46204111 -0.0540535 0.013889428
0.46516478 -0.052902747 0.015075088
0.35688037 -0.050189983 0.015066133
0.36705375 -0.04881661 0.015294766
0.37011564 -0.049940262 0.01413301
0.37328944 -0.051076759 0.012899359
0.46343073 -0.051456846 0.012439067
0.46631804 -0.050405484 0.01354536
0.46955121 -0.049344271 0.01489097
0.47235131 -0.0481438 0.015734198
0.36277625 -0.045069203 0.015001027
0.36583781 -0.046280634 0.013777442
0.36884698 -0.047407947 0.012661159
0.46733528 -0.047959402 0.012061143
0.47041541 -0.046851557 0.013158755
0.47371358 -0.045646995 0.014452466
0.47641072 -0.044387236 0.015695322
0.35932955 -0.041072186 0.015269785
0.3618117 -0.042134557 0.013692878
0.3643809 -0.043463483 0.012283653
0.47492799 -0.042593502 0.01298898
0.47741598 -0.041653059 0.014655451
0.34574696 -0.036834896 0.015917893
0.35562527 -0.036821127 0.015691793
0.35813415 -0.037909787 0.014104519
0.36068389 -0.039139669 0.012586187
0.47852066 -0.038451526 0.013381992
0.48105228 -0.037401795 0.015015533
0.34366778 -0.033136606 0.015246467
0.34465662 -0.035209499 0.015766472
0.35439432 -0.033670157 0.014562489
0.3568992 -0.034586415 0.012861204
0.47957548 -0.035568841 0.012295662
0.48219609 -0.034152195 0.013731582
0.48476395 -0.0329629 0.015303278
0.34243748 -0.02968757 0.014898204
0.34490472 -0.029991683 0.012675191
0.35087973 -0.029594686 0.014963627
0.35337782 -0.030489475 0.013213294
0.48340002 -0.031128647 0.012685457
0.48589298 -0.029836621 0.014111285
0.48830116 -0.028608564 0.015672805
0.33969048 -0.024757601 0.015628142
0.34197009 -0.026150029 0.013947632
0.34778643 -0.024507364 0.015710035
0.35004207 -0.026080733 0.013947658
0.35231858 -0.027586736 0.012201885
0.48696271 -0.026288329 0.013132295
0.48889366 -0.025669066 0.014980884
0.33907998 -0.021711664 0.014957459
0.34156251 -0.022732506 0.012989343
0.34722716 -0.021695886 0.015049977
0.34908274 -0.022171887 0.013220224
0.48768654 -0.022900946 0.012391115
0.48970583 -0.02195725 0.014179397
0.33794424 -0.017902 0.014529848
0.34067452 -0.018814417 0.012306611
0.34633404 -0.017835993 0.014272506
0.34840244 -0.01887277 0.012470947
0.49060914 -0.018270964 0.013492532
0.49259594 -0.017497269 0.015331293
0.33516434 -0.013454965 0.015458641
0.33754146 -0.014279034 0.013479716
0.34344783 -0.013239055 0.015359167
0.34542829 -0.014123275 0.013575631
0.38629928 -0.013033087 0.013699735
0.41365492 -0.013020236 0.014008844
0.49140513 -0.014594782 0.012699748
0.49336305 -0.013924737 0.014545249
0.33473042 -0.0097836433 0.014904737
0.33683348 -0.010206754 0.012850232
0.34277171 -0.0097773522 0.014645833
0.34467545 -0.010361971 0.012717967
0.38629833 -0.010058093 0.013684768
0.41365495 -0.0099978223 0.014086532
0.49419734 -0.010137681 0.013813564
0.49612334 -0.0092580682 0.015682159
0.33438447 -0.0063985046 0.014817533
0.33649641 -0.0050653247 0.012484019
0.34246781 -0.0059390618 0.014229202
0.34423259 -0.0065267896 0.012256263
0.38629708 -0.0060591949 0.013612304
0.41365501 -0.0059877764 0.01393624
0.49479449 -0.0060077817 0.013579807
0.49649176 -0.0058347601 0.015550073
0.33406886 -0.0019505507 0.014541402
0.34215245 -0.0020419285 0.013995767
0.38629884 -0.0019628215 0.013728027
0.41365504 -0.0019912261 0.014092587
0.49500835 -0.0020253048 0.013208346
0.49669614 -0.0017947122 0.015170091
0.33396307 0.0021297887 0.014088531
0.33806646 0.0020178563 0.013898317
0.34163743 0.0018983672 0.013992093
0.38629749 0.0020871689 0.013849394
0.41365519 0.0019274032 0.014020927
0.49521708 0.0018975226 0.012839724
0.49696755 0.0021663876 0.01486755
0.33182117 0.0058903513 0.015864985
0.33357716 0.0061023301 0.013943905
0.33971965 0.0064712153 0.015548107
0.34148863 0.0059393696 0.013535547
0.38629919 0.0059147296 0.013939816
0.41365537 0.0059312936 0.014024834
0.49550191 0.005761371 0.012585238
0.49722055 0.0061239214 0.014552962
0.33170405 0.010451659 0.015349871
0.33354223 0.0096232984 0.013531971
0.33948341 0.010087936 0.01531021
0.34119794 0.0099205319 0.013308243
0.38629869 0.010024045 0.013921961
0.41365573 0.009935094 0.014028802
0.4957751 0.010006583 0.012301826
0.49746868 0.010074338 0.014288291
0.3318238 0.014298433 0.015649259
0.33374158 0.013839735 0.01355639
0.33961526 0.013738862 0.015449835
0.34137049 0.014044167 0.013426214
0.38637051 0.013176383 0.013859211
0.38928297 0.014106162 0.012581038
0.39841682 0.014055241 0.013963651
0.41365591 0.012871153 0.014031705
0.49560413 0.01437518 0.012483507
0.49730214 0.013948133 0.014418497
0.3337484 0.018150937 0.014139177
0.33989266 0.017098812 0.015661007
0.34156147 0.018059991 0.013824676
0.49530694 0.018135278 0.01271103
0.49706095 0.017923629 0.014749606
0.33394998 0.022103969 0.014480913
0.33610818 0.020840906 0.012114558
0.34191078 0.021883283 0.014012353
0.49510393 0.022070467 0.013084454
0.49681798 0.021903958 0.015084928
0.33431029 0.025902847 0.014609012
0.33654299 0.026223416 0.012388487
0.34238791 0.025894012 0.014071656
0.34405467 0.027078807 0.012306518
0.49487129 0.026092602 0.013439368
0.49658522 0.025718633 0.015406233
0.33466256 0.02965901 0.014758854
0.33661041 0.03086075 0.012931312
0.34267855 0.029912245 0.014379598
0.34447148 0.030237213 0.012357481
0.49449921 0.03015548 0.013695569
0.49626708 0.029688319 0.015654694
0.33498916 0.034051228 0.015292869
0.33713013 0.033912893 0.013148477
0.34311262 0.033520523 0.015133083
0.34508544 0.03418038 0.013258901
0.49163058 0.035146333 0.012487207
0.49371165 0.033949539 0.014225342
0.49605551 0.032128643 0.015994929
0.3376269 0.03782887 0.014200174
0.3431755 0.036932189 0.015181802
0.34600374 0.037862871 0.013926062
0.34824097 0.039295632 0.012131892
0.49090862 0.038381953 0.013161726
0.49288651 0.037734292 0.015046692
0.33877349 0.041746862 0.014652121
0.34090239 0.042250369 0.012829891
0.34682065 0.041662984 0.014763703
0.3487635 0.0423171 0.012916856
0.4878602 0.043637097 0.012219357
0.49008259 0.042122681 0.013957666
0.492295 0.040581629 0.015703592
0.33945712 0.045138247 0.015357966
0.34149471 0.04613293 0.013788484
0.34760752 0.045249272 0.015533239
0.34963968 0.046198096 0.013726017
0.48718646 0.046566594 0.012793868
0.48917609 0.045786086 0.014635485
0.34230441 0.050069161 0.014568876
0.34445485 0.050008927 0.01251324
0.35064822 0.04984146 0.014382171
0.35291317 0.050895751 0.012807037
0.48353571 0.051871262 0.012188789
0.48631006 0.050240669 0.013749152
0.48859784 0.048959553 0.015452414
0.34307018 0.053244025 0.015095823
0.34576857 0.054286242 0.013302631
0.3514401 0.052606821 0.015444044
0.35399404 0.054065123 0.014080135
0.35640675 0.055069771 0.012529699
0.48268566 0.054462928 0.013291894
0.48518032 0.053454641 0.014921803
0.3464509 0.058370374 0.015247404
0.35512862 0.057128515 0.015234808
0.35761881 0.058215994 0.013664322
0.36032885 0.059646357 0.012156886
0.47898397 0.058712319 0.012879769
0.48148224 0.057694994 0.01449684
0.48405465 0.056194432 0.015866755
0.34877643 0.062091094 0.015758438
0.35888132 0.061428357 0.01480538
0.36141106 0.062478609 0.013175245
0.47534108 0.063091323 0.012611253
0.47790858 0.061894562 0.014165971
0.48043647 0.060593341 0.015610091
0.35532245 0.067546792 0.013735098
0.35604638 0.066685401 0.012628901
0.36248764 0.065697357 0.014530514
0.36543888 0.066726036 0.013000602
0.47112021 0.067337587 0.012647694
0.47412053 0.066129476 0.013836707
0.4766506 0.065069146 0.015288237
0.35518864 0.069481753 0.015051581
0.35653099 0.071675561 0.015374565
0.36368188 0.068236679 0.015713533
0.36633444 0.069231994 0.014713749
0.36967316 0.070455715 0.013445057
0.37261477 0.071575582 0.01237167
0.46672377 0.070991255 0.012919069
0.4699012 0.069826454 0.014124164
0.47296828 0.068703458 0.01528456
0.37078714 0.073102966 0.015145661
0.37393358 0.074195676 0.013890704
0.37686062 0.07518696 0.012696703
0.45973697 0.075735591 0.012322345
0.46243447 0.074631415 0.013244773
0.46564651 0.073526829 0.014534594
0.46852636 0.072404921 0.015560351
0.37527072 0.076774627 0.015365764
0.37808183 0.077752322 0.014247832
0.38177782 0.078949802 0.013286318
0.38508001 0.079551786 0.012430567
0.45174539 0.079744458 0.012232295
0.45438689 0.079232596 0.012842898
0.45817035 0.078316398 0.013762873
0.4614929 0.07715521 0.014954555
0.46419805 0.076086633 0.015923573
0.37953544 0.080250748 0.015751336
0.38232756 0.080799706 0.015077354
0.38608289 0.081652842 0.014300586
0.38983381 0.082591869 0.013621947
0.39367107 0.083377287 0.012739761
0.39640003 0.083898969 0.012097679
0.4430488 0.083631784 0.012520908
0.44626793 0.08292532 0.013207663
0.45002344 0.082059547 0.013964978
0.45380628 0.081167668 0.014710904
0.45719126 0.08042074 0.015435934
0.39079973 0.084605277 0.015401429
0.39420059 0.085253 0.014561562
0.39795467 0.08617565 0.013938948
0.40199608 0.086691245 0.013616929
0.40587369 0.086924799 0.013288154
0.4098644 0.087120943 0.012894165
0.41382983 0.08746732 0.012689874
0.41735515 0.087741524 0.012484151
0.42228442 0.087528884 0.012499233
0.42615056 0.087314017 0.012844325
0.43008223 0.087067023 0.013166268
0.43403515 0.08683195 0.013506183
0.43809161 0.086467996 0.013740564
0.44179827 0.085751444 0.01428197
0.44565985 0.084858917 0.015057954
0.44873133 0.084229708 0.015773874
0.39885753 0.08809752 0.015788706
0.40217143 0.088403955 0.01561825
0.40604699 0.088631809 0.015279215
0.4101558 0.088911705 0.014968338
0.41406158 0.089205749 0.014707747
0.41809326 0.089393169 0.014353633
0.42185616 0.089250997 0.014464839
0.42589575 0.089040592 0.014847348
0.42979532 0.088792413 0.015161423
0.4337008 0.088535182 0.015465896
0.43764272 0.08822538 0.01571835
0.41495588 -0.072023056 0.019841198
0.41841894 -0.072222821 0.019699551
0.42105275 -0.072164044 0.019797457
0.39518976 -0.068497784 0.019575059
0.39819553 -0.068910114 0.018887142
0.40202746 -0.069198698 0.018547071
0.4060623 -0.069451362 0.01820296
0.41005841 -0.069824643 0.018015049
0.41404393 -0.070321277 0.017979018
0.41801706 -0.070621565 0.017759658
0.42207441 -0.070445441 0.017850915
0.42592984 -0.07009051 0.018043038
0.42993873 -0.069604456 0.018091641
0.43400043 -0.069325022 0.018406386
0.43803582 -0.069040716 0.018715682
0.44166106 -0.068646215 0.019284243
0.44400728 -0.068290077 0.019986549
0.38652956 -0.064704515 0.019340288
0.39025328 -0.065352485 0.018311081
0.39385614 -0.066432141 0.017837889
0.39773902 -0.067214936 0.017003139
0.40167171 -0.067567207 0.016586015
0.40546271 -0.067793354 0.016243087
0.43159333 -0.067763031 0.016056746
0.43423942 -0.067682579 0.01642492
0.43821803 -0.067447789 0.016780285
0.44218436 -0.066771559 0.017367037
0.44589031 -0.065860465 0.018085081
0.44974941 -0.064939059 0.018868834
0.45274743 -0.064307638 0.019566122
0.37573254 -0.060044229 0.019793343
0.37845147 -0.060925789 0.018903013
0.38213146 -0.061806064 0.018102262
0.38571197 -0.062742926 0.017472448
0.38923618 -0.063517913 0.016682448
0.44732332 -0.063661002 0.016269136
0.45034423 -0.063060962 0.016981971
0.4541221 -0.062222309 0.017827414
0.45780548 -0.061272673 0.018491507
0.46076396 -0.060602933 0.019314764
0.37136284 -0.056371383 0.019466478
0.37431464 -0.057617504 0.018456606
0.37762034 -0.058777522 0.017144658
0.38076046 -0.059725083 0.016353855
0.4586387 -0.059291005 0.016651103
0.46208414 -0.058149859 0.01788445
0.46527719 -0.056884736 0.019055212
0.35491455 -0.053024463 0.019126445
0.36704543 -0.052805871 0.019220665
0.37002563 -0.053946424 0.018077131
0.37312973 -0.055077478 0.016846567
0.46342045 -0.055643141 0.016424067
0.46632907 -0.054503009 0.017499194
0.4695738 -0.053220492 0.018692227
0.47230458 -0.052147187 0.019712489
0.35125387 -0.048595719 0.019431854
0.35406321 -0.050391298 0.017951446
0.3626979 -0.049061924 0.018809326
0.36578712 -0.050241858 0.017632395
0.3688685 -0.05147614 0.016522286
0.47057489 -0.050802566 0.017063718
0.47369674 -0.049688064 0.018329943
0.47660139 -0.04862719 0.019485576
0.34765744 -0.044249449 0.019735234
0.34985971 -0.046161558 0.018940691
0.35240179 -0.046758048 0.016843792
0.35885063 -0.045496643 0.019066734
0.36136034 -0.046471853 0.017464301
0.36419451 -0.047636926 0.016284894
0.47506684 -0.04715791 0.016872382
0.4778522 -0.045810282 0.01820272
0.48039991 -0.044238269 0.019501679
0.3464967 -0.041902129 0.019020123
0.34921724 -0.042643029 0.016869163
0.35527799 -0.041009005 0.019204404
0.35779226 -0.04222643 0.017636662
0.36031339 -0.043788999 0.016336098
0.47903329 -0.042573385 0.01690235
0.48142931 -0.041587517 0.018526301
0.34299076 -0.037321523 0.019020224
0.34552649 -0.038896751 0.017677391
0.35153139 -0.036615405 0.019564606
0.3540428 -0.037937507 0.018091442
0.35656908 -0.039149616 0.016514389
0.48266819 -0.038424633 0.01734825
0.48504406 -0.037461806 0.018963858
0.33966583 -0.032797813 0.019529214
0.3412562 -0.033641528 0.01812759
0.35041559 -0.033677027 0.018446352
0.3528631 -0.034779146 0.016860245
0.4837141 -0.035799593 0.016437303
0.48627165 -0.03426649 0.017760063
0.4887349 -0.032946147 0.019194374
0.33896589 -0.029953113 0.01892568
0.34096858 -0.03016049 0.016703222
0.34705541 -0.029430598 0.018933088
0.34917521 -0.030559445 0.017355837
0.48737019 -0.031206103 0.016529236
0.48979938 -0.029963437 0.018178405
0.49210331 -0.028364398 0.019943211
0.33795768 -0.025948122 0.0181685
0.34006301 -0.027679589 0.016566556
0.34626082 -0.025836082 0.018103503
0.34835976 -0.027373811 0.016408414
0.49077594 -0.026280252 0.017402006
0.49266917 -0.025619527 0.019271586
0.33527008 -0.021704787 0.019268483
0.33713821 -0.022152385 0.017281855
0.34342977 -0.021423815 0.019259242
0.34535396 -0.022320563 0.01747158
0.49149618 -0.022914793 0.016629118
0.49341345 -0.021848466 0.01832604
0.33443582 -0.017787831 0.018331781
0.33642253 -0.018845433 0.016548172
0.34268764 -0.017783951 0.018378586
0.34457952 -0.018715611 0.016642235
0.49447054 -0.018245645 0.017825209
0.4964577 -0.017025577 0.019535704
0.33166853 -0.012919993 0.019246092
0.33346218 -0.014213682 0.017742107
0.33970681 -0.01314659 0.019590601
0.34166005 -0.014099794 0.017805267
0.38629851 -0.01292808 0.017842717
