# .PCD v0.7 - Point Cloud Data file format
VERSION 0.7
FIELDS x y z
SIZE 4 4 4
TYPE F F F
COUNT 1 1 1
WIDTH 1359
HEIGHT 1
VIEWPOINT 0 0 0 1 0 0 0
POINTS 1359
DATA ascii
0.38580182 -0.030316155 0.026105708
0.38888875 -0.031602155 0.025914891
0.414756 -0.029435672 0.02742802
0.41686326 -0.028332759 0.027238971
0.37836349 -0.025530601 0.026036415
0.38058412 -0.027329832 0.025590427
0.41878402 -0.027147293 0.025658553
0.42133403 -0.025110906 0.025798248
0.37459335 -0.021853728 0.025983578
0.37646607 -0.023827627 0.025885038
0.42319062 -0.023329103 0.025968157
0.42491418 -0.021456132 0.025730217
0.37104073 -0.017391551 0.026009886
0.37251207 -0.019422142 0.025803011
0.42709821 -0.018707592 0.026176285
0.4285652 -0.016508872 0.025656335
0.3691608 -0.0140224 0.026039509
0.42982039 -0.014025886 0.025993049
0.36744756 -0.0097918659 0.025921404
0.36813852 -0.011680086 0.026102448
0.43122625 -0.010034135 0.025932739
0.3665126 -0.006136179 0.026068617
0.4318966 -0.0073088417 0.026108071
0.43227586 -0.0052981307 0.026231291
0.36608243 -0.0019848261 0.025883863
0.43262354 -0.0018878555 0.025509212
0.36625394 0.0021365271 0.025981046
0.4326165 0.0021591743 0.025712887
0.36681065 0.0059670508 0.026030051
0.43183741 0.0069504073 0.026044164
0.43226886 0.0051142629 0.026213784
0.36761099 0.0091483062 0.026055822
0.36822942 0.011166482 0.025927424
0.43106943 0.009736171 0.025866339
0.3694053 0.013972894 0.025962362
0.42959839 0.013837012 0.02625588
0.37114385 0.017301658 0.025979413
0.37261546 0.019445358 0.026022626
0.42703915 0.018640691 0.025851229
0.42830789 0.016596744 0.026099697
0.37460876 0.021828672 0.026031317
0.37641987 0.023696763 0.025952557
0.42296624 0.023360595 0.025196433
0.42495194 0.021283375 0.026434828
0.37829533 0.025552994 0.025886895
0.38087669 0.027528159 0.026174495
0.41902795 0.026968675 0.026365869
0.42122266 0.025059475 0.025395138
0.38280341 0.028684676 0.025919748
0.38614306 0.030332267 0.026028553
0.38918677 0.031477246 0.025945576
0.41065195 0.031557828 0.026009379
0.41420752 0.029989788 0.025736863
0.41708413 0.028365964 0.026208103
0.39115083 0.032129839 0.025937961
0.39419329 0.032821614 0.02601002
0.40875256 0.032225244 0.0273865
0.39093575 -0.032144319 0.029726215
0.38290709 -0.028733259 0.029846711
0.38596418 -0.030301472 0.030293625
0.38872415 -0.031448185 0.030133381
0.41337723 -0.030040869 0.031342193
0.41721499 -0.028053952 0.03156
0.37829542 -0.025413634 0.030030953
0.38087243 -0.027471507 0.030011812
0.41892418 -0.026951114 0.029911939
0.42123252 -0.025094105 0.030545009
0.37442979 -0.021582637 0.029993961
0.37636191 -0.023644246 0.030090144
0.42321512 -0.023197355 0.03057112
0.42507485 -0.021183262 0.030060073
0.37109885 -0.017418701 0.02996501
0.37251309 -0.019328477 0.0300723
0.42716628 -0.018564709 0.030190196
0.4283739 -0.016771583 0.029572923
0.3691414 -0.013972031 0.029987402
0.42978942 -0.014058844 0.030052394
0.36746362 -0.0096987169 0.030000577
0.36813843 -0.011616559 0.030357821
0.43126386 -0.0099297836 0.029998636
0.36652845 -0.0059906063 0.0299355
0.43187207 -0.0074407663 0.03024438
0.43221834 -0.0056413566 0.030084448
0.36612675 -0.0018702562 0.029996334
0.43264392 -0.0022505922 0.029664945
0.36628401 0.0020727578 0.029835289
0.43266356 0.0019242174 0.029729621
0.36683172 0.0059731537 0.030114183
0.431826 0.007134581 0.030068196
0.43226919 0.0052185622 0.030044211
0.36761039 0.0091580702 0.029996203
0.36827227 0.011223614 0.029944219
0.43102846 0.010004414 0.029914584
0.36937445 0.014023435 0.030023364
0.42960551 0.013918332 0.03006725
0.37107947 0.017372493 0.030042805
0.37254143 0.019439388 0.02996112
0.42706451 0.018712487 0.029911872
0.42833629 0.016690413 0.030060371
0.37452722 0.021794029 0.029984759
0.37636968 0.023667684 0.02995589
0.42313731 0.023298152 0.029186787
0.42508563 0.021243753 0.030341169
0.37823284 0.025506247 0.029888956
0.38097098 0.027616499 0.030576836
0.41880366 0.027243391 0.030060733
0.4211621 0.025227085 0.029583454
0.38270813 0.02868152 0.029847762
0.38601464 0.030340731 0.03003086
0.38894257 0.031440459 0.029844396
0.41128594 0.031348132 0.029150235
0.414058 0.030157266 0.030382464
0.41679648 0.028680272 0.030246403
0.39070305 0.03203927 0.030182097
0.39342993 0.032719254 0.029789628
0.39805752 0.033396117 0.029814716
0.40764889 0.032579318 0.031959832
0.40928018 0.03210127 0.03042512
0.39309964 -0.032565642 0.035398714
0.38281462 -0.028593406 0.033983145
0.38601941 -0.030244755 0.034037344
0.39005619 -0.031762488 0.033954285
0.41530499 -0.029072888 0.032257661
0.41672435 -0.028277477 0.034083374
0.3782078 -0.025283588 0.03391362
0.38073087 -0.027296526 0.034085877
0.41878837 -0.026944766 0.033893749
0.42089593 -0.025298683 0.034268439
0.37450364 -0.021562073 0.033999112
0.37640479 -0.023574667 0.034440849
0.42312217 -0.023201192 0.03422831
0.42516321 -0.020989701 0.034399074
0.37107244 -0.017228445 0.034022056
0.3726196 -0.019342851 0.0341134
0.42692447 -0.01882129 0.0339825
0.42839655 -0.016681135 0.03384798
0.36916375 -0.013949251 0.034002807
0.42981711 -0.013965532 0.034121066
0.36747068 -0.0095348889 0.03403249
0.36817685 -0.011650107 0.034073588
0.43126705 -0.0099468259 0.033982202
0.36653873 -0.0058622379 0.0339645
0.43187797 -0.0074493052 0.033857647
0.43225574 -0.0054507484 0.034129046
0.36614257 -0.0019651498 0.034093566
0.4326942 -0.0019482013 0.033992954
0.36629683 0.0018433899 0.034053154
0.43269303 0.0020634611 0.033890646
0.36683953 0.0058497326 0.034036566
0.43184021 0.0072354334 0.033712476
0.43228006 0.005302914 0.034015041
0.36763015 0.0091809966 0.033932984
0.36831996 0.011233333 0.033992909
0.43110076 0.0099382708 0.034112986
0.36931887 0.014014913 0.034064788
0.42962676 0.013968915 0.034013674
0.37104028 0.017427586 0.03399229
0.37245029 0.01946089 0.034055717
0.42712113 0.018740499 0.033988852
0.4283925 0.016698116 0.033743318
0.37447888 0.021799197 0.033946589
0.37626421 0.023637855 0.033947896
0.42339271 0.023163367 0.033787053
0.42520744 0.021205213 0.03413754
0.37809539 0.025459876 0.033917889
0.38094261 0.02766132 0.034017421
0.41893896 0.027276585 0.034302957
0.4212532 0.025255863 0.033606943
0.38276505 0.028779209 0.034058761
0.38552654 0.030201275 0.034010202
0.38950306 0.031681184 0.033909395
0.4107205 0.031624321 0.033471331
0.41413924 0.030203314 0.034022581
0.41704258 0.028644895 0.03418852
0.39379704 0.032839071 0.034269724
0.39636749 0.033280961 0.032608837
0.40843034 0.032422602 0.035617966
0.39174104 -0.032154646 0.039176859
0.39226651 -0.032357331 0.037069641
0.38282833 -0.02850767 0.038039241
0.3856546 -0.029972391 0.037991323
0.38913164 -0.031404816 0.037944235
0.41413891 -0.029591722 0.036658745
0.41657382 -0.028265974 0.038337577
0.37832534 -0.025341297 0.038069833
0.38100117 -0.027395152 0.037919819
0.41890427 -0.026760189 0.038224269
0.42124507 -0.024929456 0.037365448
0.37458768 -0.021598067 0.03817888
0.37639263 -0.023530316 0.03766305
0.42303509 -0.023203371 0.037820872
0.4249748 -0.021123365 0.037814457
0.37115347 -0.017235365 0.037959363
0.37262258 -0.019240726 0.037937492
0.42706227 -0.018557604 0.038149513
0.42844567 -0.016547713 0.037437115
0.36924875 -0.014001654 0.038063575
0.4297778 -0.014017111 0.037979279
0.36749196 -0.0094486354 0.038027156
0.36815816 -0.011477672 0.03782241
0.43124908 -0.010008577 0.037955008
0.36657614 -0.005964763 0.038028784
0.43186975 -0.0075228945 0.037875962
0.43227255 -0.0053918334 0.038119804
0.36615369 -0.0021709662 0.038031325
0.43271267 -0.0017822166 0.038187936
0.36631972 0.0018817122 0.038100399
0.43272832 0.0018659945 0.038114116
0.36688077 0.0059310999 0.037962634
0.43184718 0.0074128034 0.037913337
0.43230224 0.005351407 0.038086731
0.36760685 0.0090567414 0.038012672
0.36825138 0.011014522 0.037971471
0.43112621 0.010016222 0.038136967
0.369268 0.013972198 0.038046423
0.42967173 0.013979411 0.038014114
0.37099239 0.017450012 0.038048889
0.37245196 0.019508108 0.03782136
0.42723623 0.018685203 0.038006481
0.42844242 0.016706815 0.037900213
0.37441114 0.021782657 0.037940584
0.37620917 0.023693062 0.037902132
0.42335179 0.023323996 0.038183007
0.42528996 0.021206155 0.038152326
0.37805972 0.025517158 0.037946593
0.380548 0.027576743 0.03794869
0.41922316 0.027167963 0.038344231
0.42152995 0.025122974 0.038067482
0.38290653 0.028954765 0.038018558
0.38609999 0.030515533 0.038041893
0.38928854 0.031679172 0.037633087
0.41086128 0.03164361 0.037394952
0.41416037 0.030303946 0.038443543
0.41709623 0.028705193 0.037754234
0.39180788 0.032453135 0.039038092
0.39372912 0.03287733 0.03773284
0.40924266 0.03226329 0.039329816
0.39136153 -0.032015666 0.040589359
0.39201954 -0.032219134 0.040333245
0.38311082 -0.028596314 0.041924044
0.38576245 -0.029952634 0.041980006
0.38945678 -0.031421985 0.042130362
0.41414151 -0.02951505 0.041217316
0.41619748 -0.028441947 0.041079108
0.37835166 -0.025308046 0.041872103
0.38099161 -0.027318269 0.042052645
0.41856402 -0.026910627 0.042189129
0.42114916 -0.024914747 0.041837323
0.37454063 -0.021489771 0.041983489
0.37645 -0.023592848 0.042069864
0.42305753 -0.023078328 0.042134635
0.42493513 -0.021078508 0.041763831
0.37111309 -0.017101295 0.041975301
0.37249184 -0.018999651 0.041955698
0.42704087 -0.018518569 0.042051304
0.42833892 -0.016669467 0.041452311
0.36927068 -0.013962609 0.042008393
0.42982304 -0.013846992 0.04190857
0.36752602 -0.0094756288 0.042015065
0.36818326 -0.011396309 0.042004868
0.43128443 -0.0098619191 0.042068738
0.36659524 -0.0060973209 0.042027652
0.43191689 -0.0073269904 0.042164307
0.43228462 -0.0053370101 0.042011462
0.36614582 -0.0020331568 0.041858815
0.43271279 -0.0020188494 0.041942578
0.36634707 0.0020329345 0.042057503
0.43276012 0.0018834149 0.042099021
0.36689863 0.006000272 0.041956153
0.43189111 0.0074079544 0.041723963
0.43234468 0.0052359537 0.042277101
0.36761597 0.0091101089 0.042074807
0.36824143 0.01103847 0.041917995
0.43113828 0.010110021 0.041937839
0.36926642 0.014017846 0.042041052
0.42969823 0.014032254 0.04202769
0.37109169 0.017645696 0.041953433
0.37255129 0.019681614 0.041997429
0.42736891 0.018591018 0.041918397
0.42849293 0.016715338 0.041974586
0.37439889 0.021828264 0.042041406
0.3761104 0.023687163 0.041687224
0.4234477 0.023336636 0.042500049
0.42528126 0.021315366 0.042051002
0.37818286 0.025719877 0.042062048
0.38074651 0.027830875 0.041914213
0.41917974 0.02731619 0.042113476
0.42150548 0.025258759 0.042509094
0.38249516 0.028867533 0.041969556
0.38605699 0.030584719 0.042094711
0.38935018 0.03178478 0.041832093
0.41115218 0.031616077 0.042391479
0.4141528 0.030393545 0.042090058
0.41728884 0.028708225 0.042240776
0.3912828 0.032379083 0.042035218
0.3934674 0.03293062 0.042054366
0.39813149 0.033692587 0.042768613
0.4079681 0.032689661 0.04166767
0.40976343 0.032141197 0.042213548
0.39290747 -0.032333039 0.046409212
0.38304678 -0.028505821 0.045637611
0.38609454 -0.030018212 0.045968801
0.38984701 -0.031497814 0.046125103
0.41410044 -0.029458024 0.045544419
0.41641918 -0.028222414 0.044730421
0.37831393 -0.025237678 0.045951132
0.3810899 -0.027302099 0.046220217
0.41867149 -0.026737206 0.046000585
0.42103735 -0.024907539 0.046149079
0.37463382 -0.021561962 0.045916293
0.37642935 -0.023513416 0.046039298
0.42295378 -0.023081053 0.046522014
0.42490977 -0.021008797 0.046001963
0.37117791 -0.01717888 0.045994259
0.37277564 -0.019304119 0.045960397
0.42699727 -0.018503096 0.045786418
0.42837715 -0.016546572 0.045835197
0.36927843 -0.013993742 0.046072289
0.42972398 -0.014006587 0.046098847
0.36748239 -0.0093018794 0.046023428
0.36820945 -0.011349118 0.045884561
0.43122438 -0.010023376 0.046151515
0.36652789 -0.0059858179 0.046027031
0.43185273 -0.0076081557 0.045824572
0.43222591 -0.0057297386 0.045989107
0.3661316 -0.001972517 0.045851648
0.43270856 -0.0021011054 0.04592241
0.36635986 0.0020538936 0.045998625
0.43275812 0.0022355001 0.04588297
0.36691707 0.0060945153 0.045997836
0.43190131 0.0075744782 0.045970462
0.43228719 0.0057477513 0.046107426
0.36761415 0.0091631925 0.046099275
0.36824009 0.01108848 0.045891169
0.43118337 0.010083312 0.046011079
0.3692584 0.014047358 0.046049621
0.42972901 0.014084357 0.046173796
0.37103716 0.017608296 0.045936175
0.37249902 0.019673994 0.046087056
0.42733857 0.018747345 0.045954879
0.42847306 0.016843921 0.045867931
0.37445647 0.021953747 0.046005458
0.37615171 0.023915477 0.046294443
0.42346185 0.023420604 0.046316355
0.4253566 0.021329146 0.046034914
0.37807095 0.025706632 0.046108346
0.38043904 0.027771957 0.045907792
0.41911653 0.02746392 0.045748431
0.42152423 0.025344389 0.046306133
0.38219726 0.028835107 0.046015386
0.38565773 0.030494442 0.04597614
0.38881266 0.031695995 0.045917515
0.41112742 0.031698883 0.04665434
0.4142223 0.030457819 0.045828216
0.41715658 0.028927376 0.046551149
0.39079756 0.032328803 0.046055976
0.39377838 0.03305696 0.046319611
0.39649302 0.033575423 0.045394398
0.40946043 0.032283373 0.044980757
0.39194152 -0.032066166 0.048679106
0.39393052 -0.032488283 0.049762685
0.38305798 -0.028434252 0.050172977
0.38573578 -0.02977992 0.049851827
0.389828 -0.031407174 0.050152253
0.41406271 -0.029401377 0.049778104
0.41634551 -0.028183753 0.048947111
0.37836143 -0.025203651 0.050076839
0.38111809 -0.02725829 0.049827691
0.41854206 -0.02672796 0.05009149
0.42091477 -0.024905732 0.050322205
0.37457195 -0.021438269 0.050037339
0.37637076 -0.023371832 0.04983145
0.42296323 -0.022963718 0.050886791
0.42490822 -0.020912867 0.050152473
0.37119868 -0.017211245 0.050026353
0.37268934 -0.019148227 0.050036009
0.42702663 -0.018371748 0.049880829
0.42838329 -0.016485643 0.050019968
0.36928788 -0.013998398 0.050052207
0.42970243 -0.01398831 0.050151318
0.36751369 -0.0092521803 0.050114382
0.36819813 -0.011258499 0.049670834
0.43120104 -0.010069707 0.050121915
0.36654583 -0.0058756396 0.050025713
0.43188366 -0.0074703582 0.050039947
0.43230242 -0.0053309021 0.050016139
0.36614048 -0.0018612019 0.049885686
0.43274078 -0.0018702246 0.050018605
0.36638036 0.0021154501 0.050043907
0.432805 0.0018405544 0.050029345
0.36692682 0.0061641731 0.049967185
0.43192282 0.0076902937 0.050152604
0.43232748 0.0057550427 0.04995665
0.36766189 0.0093646711 0.050128695
0.36828223 0.0112809 0.049766865
0.43126369 0.0099960258 0.050086822
0.36924866 0.014072134 0.050044078
0.42978778 0.014046623 0.050107438
0.37101564 0.017635275 0.049958218
0.37242758 0.019649664 0.050009478
0.42726332 0.018965326 0.049966976
0.42847973 0.016923109 0.049817137
0.37439391 0.02194342 0.050001636
0.37604237 0.023879316 0.050367899
0.42341343 0.023559943 0.04956121
0.42535508 0.021434024 0.050228499
0.37792805 0.025659733 0.050128799
0.38017815 0.027715135 0.049828965
0.41918865 0.027514836 0.049696114
0.42143649 0.025526427 0.050046694
0.38207445 0.028876472 0.050202373
0.38559842 0.030558188 0.04990444
0.38829872 0.031604283 0.049995925
0.41106755 0.031812079 0.050025597
0.41427892 0.030520309 0.049915943
0.41752902 0.028796328 0.050558578
0.39023128 0.032230869 0.050004717
0.39384204 0.033141669 0.049993791
0.40911627 0.032496754 0.049902391
0.39382094 -0.032368466 0.054517314
0.38315281 -0.028444083 0.053635504
0.38597345 -0.029816139 0.05409614
0.38951233 -0.031227389 0.053662077
0.41451776 -0.029088825 0.053863868
0.37854007 -0.025285991 0.054067038
0.38108808 -0.027198708 0.054148875
0.41817155 -0.026889456 0.053916398
0.42079225 -0.024905024 0.054393578
0.37468395 -0.021494031 0.053849105
0.37665683 -0.023553245 0.054040398
0.42277777 -0.023039203 0.054879144
0.42479604 -0.020936735 0.054375309
0.37115422 -0.017003249 0.054064538
0.37267658 -0.019059543 0.054183803
0.42681912 -0.018559083 0.053882476
0.42836571 -0.01643336 0.054030865
0.36937872 -0.013941041 0.053922404
0.42971641 -0.013883058 0.053957295
0.3675921 -0.0093481122 0.053922731
0.36827195 -0.011319488 0.054201275
0.43125209 -0.0098418128 0.054171246
0.36666399 -0.0061485069 0.054086007
0.4318741 -0.007503774 0.05403379
0.43225119 -0.0056410721 0.053817734
0.36616153 -0.0021242769 0.054027054
0.43272638 -0.0021511931 0.054081541
0.36638531 0.0020256361 0.05405733
0.43281174 0.0021343592 0.053965386
0.36693296 0.0062107486 0.053948577
0.43194836 0.0078040557 0.054258972
0.43235135 0.0057835053 0.054014005
0.36765876 0.0094161546 0.05404174
0.36829957 0.011402749 0.05391483
0.43135402 0.009909451 0.053925931
0.36924145 0.01410124 0.054021735
0.42988774 0.013910675 0.053966202
0.37095857 0.017606812 0.054013178
0.37239575 0.019674147 0.05400946
0.42739663 0.018869203 0.053916592
0.42848501 0.017024022 0.053908497
0.37437171 0.021979682 0.053997539
0.37620032 0.023993373 0.055288047
0.42346945 0.02362515 0.054101583
0.4253763 0.021509584 0.054112703
0.37793773 0.025747729 0.054096438
0.38004202 0.027670152 0.05307059
0.41945824 0.027415866 0.054277908
0.42160171 0.025461309 0.053665642
0.38211119 0.028963367 0.054087389
0.38636607 0.030968238 0.054103553
0.41172954 0.031649258 0.053883865
0.41451344 0.030544659 0.054078706
0.41745216 0.028922196 0.054186881
0.39052987 0.032400835 0.053909097
0.39409032 0.033321705 0.053814352
0.39792338 0.033959717 0.055721629
0.40966052 0.03240519 0.05386021
0.39286003 -0.032127839 0.057031784
0.3829574 -0.028311076 0.057855539
0.38575637 -0.029639348 0.058101732
0.38995481 -0.031259365 0.058131963
0.39226025 -0.031938341 0.058759876
0.41399777 -0.029288655 0.057980467
0.41600612 -0.0282462 0.057944465
0.37839061 -0.02506738 0.058085646
0.38103527 -0.027117517 0.05800527
0.41808972 -0.02688954 0.057910699
0.42073572 -0.024879493 0.058554169
0.37465402 -0.021371966 0.057931855
0.37657487 -0.023337863 0.057987772
0.42278695 -0.022950752 0.058191523
0.42479891 -0.020841205 0.058623187
0.37121221 -0.016943511 0.0578904
0.37266243 -0.018930418 0.058028251
0.42689356 -0.018368695 0.057826489
0.42834574 -0.016385902 0.058397599
0.36956009 -0.014081661 0.058051385
0.42964318 -0.013944114 0.057901196
0.36759663 -0.0090908837 0.058007464
0.36829206 -0.011101533 0.058029801
0.4311569 -0.010098727 0.057970881
0.36671531 -0.0060546352 0.058007613
0.43188146 -0.0074537778 0.057987649
0.43229169 -0.0054041957 0.058031976
0.3662059 -0.0020373296 0.058057223
0.43276891 -0.0018364269 0.058019884
0.36639217 0.0019441692 0.057989266
0.43285245 0.0019755887 0.058039531
0.36687869 0.0058805496 0.057980351
0.43197751 0.0079154456 0.058278251
0.43240073 0.0057771462 0.057906091
0.36763048 0.0093626296 0.058012851
0.36828503 0.011423609 0.057983652
0.43138412 0.0099963397 0.057938233
0.36923134 0.014118397 0.057983708
0.42992854 0.0139514 0.057965316
0.37093443 0.017628005 0.058057144
0.37232471 0.019651523 0.058087908
0.42746648 0.018853249 0.057928823
0.42857417 0.016935667 0.057863355
0.37431434 0.021974484 0.05797011
0.37613806 0.02397014 0.058138579
0.42365021 0.023550469 0.058321625
0.42556146 0.02140604 0.057941988
0.37815836 0.026026484 0.058023732
0.38021132 0.027991408 0.059791092
0.41963372 0.027351057 0.05821462
0.4216491 0.025525942 0.057852391
0.38197544 0.0289542 0.057985343
0.38591269 0.030863442 0.058043629
0.3887302 0.031976912 0.058876779
0.41129637 0.031934623 0.058834363
0.41427839 0.030736411 0.058004383
0.41762075 0.028885404 0.058184505
0.3902376 0.03241371 0.057619177
0.39354083 0.033312563 0.058200907
0.39689627 0.033885758 0.057370365
0.40978122 0.0324747 0.057865221
0.39575005 -0.032564681 0.063204937
0.38334191 -0.028434237 0.061810665
0.38591388 -0.029644703 0.061965059
0.38996378 -0.031179691 0.062036417
0.41401339 -0.029215129 0.062069695
0.41608748 -0.02814886 0.062266268
0.37874228 -0.025267895 0.061974682
0.38132945 -0.027261842 0.062206656
0.41850796 -0.026605492 0.061854213
0.42096576 -0.02468089 0.062034879
0.37460002 -0.021253416 0.061839998
0.37668112 -0.023328019 0.062133506
0.42309064 -0.022624046 0.061411597
0.42484125 -0.020734889 0.062581189
0.37137979 -0.017093942 0.062004205
0.37278825 -0.019048138 0.062221903
0.42681876 -0.018411994 0.061930429
0.42835924 -0.016325533 0.062171195
0.36961067 -0.014012933 0.062026951
0.42956308 -0.014054792 0.062036533
0.36768425 -0.0089812018 0.061966531
0.36831486 -0.010956571 0.062045395
0.43117782 -0.0099282423 0.061966583
0.36683208 -0.0058283657 0.062004074
0.43185797 -0.0075177299 0.062214095
0.43225533 -0.0054900469 0.061964028
0.36629289 -0.0019566705 0.061894804
0.43273917 -0.0022086967 0.062047634
0.36640987 0.0019839839 0.061973929
0.43286538 0.002108346 0.06202456
0.36685678 0.0057829292 0.062032402
0.43241721 0.005953345 0.061989009
0.36759073 0.0092676254 0.062066965
0.3682757 0.011477417 0.061836135
0.4314335 0.010040252 0.062075377
0.43200606 0.0080244672 0.062212005
0.36922604 0.014140805 0.061985437
0.42996383 0.014012082 0.062046845
0.37090975 0.017646475 0.062057305
0.37227055 0.019644223 0.061994113
0.42742646 0.019029491 0.062011983
0.42856985 0.017034162 0.061746337
0.37423983 0.021952288 0.061998107
0.37605444 0.023937982 0.062090348
0.42370698 0.023574201 0.061374966
0.42535695 0.021754691 0.062052201
0.37808949 0.026012093 0.062088881
0.38009062 0.027945805 0.062784486
0.41934776 0.027654201 0.062438615
0.42167178 0.025597094 0.06189537
0.38178772 0.028916251 0.062076505
0.38557571 0.030802123 0.062178236
0.38836667 0.031908069 0.061898001
0.41173765 0.031826023 0.061317865
0.41404772 0.030939294 0.062489323
0.41751009 0.029042577 0.062019952
0.39030463 0.032553051 0.062127508
0.3937251 0.033435646 0.061861716
0.40983149 0.032592874 0.062480334
0.39371997 -0.032160822 0.065744773
0.38342446 -0.028383948 0.065841176
0.38584632 -0.029539416 0.066086046
0.38944051 -0.030968124 0.065781027
0.39281043 -0.031947702 0.067071393
0.41191384 -0.030224334 0.06573654
0.41407394 -0.029124891 0.06618344
0.41616687 -0.028053898 0.066482551
0.37864545 -0.025073485 0.065951124
0.38123608 -0.027093934 0.065986454
0.41844302 -0.026623577 0.065980963
0.42098942 -0.024711654 0.065560348
0.37479454 -0.02139578 0.066052832
0.37674576 -0.023340663 0.066008031
0.42288256 -0.022805257 0.065389141
0.42469555 -0.020851146 0.066307135
0.37129712 -0.016898312 0.066040777
0.37280509 -0.019019764 0.066022106
0.4268105 -0.018354982 0.066079818
0.42827845 -0.016376931 0.066012144
0.36958843 -0.013886645 0.065945484
0.42961264 -0.013907537 0.066051446
0.36768323 -0.0088377707 0.065864056
0.36833298 -0.01090796 0.066099979
0.43116006 -0.010034753 0.066024654
0.36696154 -0.005962851 0.066025786
0.43187904 -0.0072987606 0.066009387
0.43222478 -0.0052824127 0.065916277
0.36637342 -0.0018242764 0.065964431
0.43270433 -0.0019846137 0.065921776
0.3664135 0.001960794 0.066090673
0.43291116 0.0019896636 0.06582021
0.36687684 0.0059569697 0.066003084
0.43245715 0.0060926811 0.066110864
0.36759591 0.009311079 0.066019543
0.36821258 0.011322328 0.066080011
0.43144307 0.010181723 0.065979794
0.43204692 0.0081321197 0.066091761
0.36918348 0.014033189 0.065959558
0.42999816 0.014072793 0.06604857
0.37087706 0.01764095 0.065969013
0.37220895 0.0196224 0.06597057
0.42738843 0.019232934 0.066053636
0.42854345 0.017222172 0.065909818
0.37428594 0.022063028 0.066047505
0.37600663 0.023917597 0.064605668
0.42374495 0.023650588 0.065723665
0.42548949 0.021715671 0.066040829
0.37800094 0.025969489 0.06612698
0.38018417 0.02799063 0.067621976
0.41951442 0.027588777 0.066179276
0.42187876 0.025499849 0.065956734
0.38192275 0.029051831 0.066118434
0.3859731 0.031034647 0.066116013
0.38804972 0.031846941 0.064591765
0.4144229 0.030881802 0.066398501
0.41754836 0.029088745 0.066171683
0.39027858 0.032641198 0.065985821
0.39416647 0.033639021 0.066009037
0.40320277 0.034176271 0.064708054
0.40676084 0.033497628 0.067828663
0.41006297 0.032589801 0.066065922
0.38317487 -0.028160483 0.069823816
0.38573742 -0.029422715 0.069871515
0.38989729 -0.031029981 0.070268683
0.3922132 -0.031756971 0.069363721
0.41372982 -0.029255357 0.070428848
0.37862471 -0.02497017 0.069890477
0.38115162 -0.02691398 0.070009425
0.41828269 -0.026696799 0.070351787
0.42102319 -0.024727972 0.069848724
0.37467963 -0.02120579 0.070008241
0.37675461 -0.023294002 0.070280343
0.42292941 -0.022828806 0.070070133
0.42473975 -0.020822367 0.07000158
0.37138313 -0.016978545 0.069995165
0.37270552 -0.018829621 0.069972754
0.42679143 -0.018407276 0.070107706
0.4282797 -0.016399026 0.069867224
0.36972708 -0.014048809 0.069968835
0.4296543 -0.013971482 0.070105977
0.36771044 -0.008911632 0.069946676
0.36833152 -0.010799858 0.06999696
0.43125966 -0.0099921953 0.069954693
0.36702076 -0.0060836058 0.070041493
0.43187025 -0.0074904789 0.069962233
0.43225628 -0.005417645 0.07014928
0.36642501 -0.0020977301 0.070013635
0.432733 -0.0017859737 0.069999464
0.36642203 0.0020840918 0.070017822
0.4329108 0.0020058635 0.070254035
0.36687636 0.0059725638 0.070028223
0.43253505 0.0059145507 0.069883421
0.36762968 0.0094656274 0.06999585
0.36820367 0.011335341 0.070064873
0.43146342 0.010268114 0.070014566
0.43206397 0.0082552871 0.070541501
0.36915231 0.013986014 0.069933169
0.43009317 0.013979442 0.06993366
0.37094405 0.0177774 0.070066996
0.37223172 0.019711433 0.069593407
0.42742342 0.01930365 0.069838963
0.42861494 0.017225288 0.07012409
0.37425837 0.022086212 0.070013903
0.42391628 0.023578074 0.069667943
0.42546505 0.021857206 0.070143111
0.37793487 0.025949217 0.070088014
0.38007337 0.027953608 0.070140332
0.41958281 0.027597446 0.069706745
0.42176947 0.025690267 0.070134297
0.38213122 0.029249094 0.070076436
0.38597599 0.031107884 0.070034683
0.41198155 0.031939689 0.069680788
0.4141691 0.031081261 0.070605561
0.41766939 0.029060379 0.069907025
0.3897171 0.032539114 0.070030421
0.3933188 0.03352119 0.069969967
0.39717969 0.034130353 0.071282446
0.40583009 0.033652909 0.069846779
0.41003028 0.032659505 0.069749653
0.39464736 -0.03218887 0.074122727
0.38371685 -0.028371869 0.074079871
0.38562858 -0.029306011 0.074137039
0.38950294 -0.030847481 0.074058183
0.39330655 -0.031930972 0.075511344
0.41397732 -0.029091738 0.074820615
0.3787967 -0.025022168 0.074150831
0.3814829 -0.027045375 0.073812984
0.41810659 -0.026777821 0.074422583
0.42093602 -0.024786389 0.074096166
0.37469438 -0.021163104 0.074012049
0.37662232 -0.023110313 0.074152164
0.42289931 -0.022882309 0.074237309
0.42459753 -0.021008918 0.073470794
0.37140566 -0.016932495 0.07404054
0.37290233 -0.019024799 0.073879227
0.42681473 -0.018503329 0.074190877
0.42829213 -0.016565928 0.073939584
0.36971852 -0.013938623 0.073970236
0.429746 -0.013928825 0.074172989
0.36770046 -0.0087771285 0.074083999
0.36837262 -0.010835912 0.073898591
0.43130377 -0.009948235 0.073957063
0.36700973 -0.006055241 0.074044786
0.43191957 -0.0076005431 0.074402243
0.43229771 -0.0055887541 0.074133694
0.36642888 -0.0021031545 0.073942639
0.43278036 -0.0020330616 0.074060537
0.36642963 0.0019778055 0.073939711
0.43292665 0.0022524758 0.07426805
0.36689585 0.0060974946 0.074038379
0.43254712 0.0060750823 0.073972337
0.36760947 0.0094312178 0.073996417
0.36821705 0.01140503 0.074023381
0.43149975 0.010307014 0.07414449
0.43208635 0.0083563309 0.074188933
0.36915499 0.013979294 0.073950864
0.43006566 0.014166827 0.073875472
0.37100688 0.01788464 0.074039012
0.37228087 0.019816976 0.073780656
0.42755762 0.019235967 0.073965795
0.42872348 0.017159978 0.073986687
0.37422651 0.022100415 0.073999383
0.4236463 0.023957109 0.073623933
0.42554116 0.021887144 0.074106611
0.37808225 0.02611744 0.074023709
0.4195441 0.027713647 0.074603021
0.42186967 0.025696194 0.073858909
0.38195994 0.029216502 0.073976405
0.38599119 0.031159911 0.074141502
0.41468865 0.030926337 0.074284486
0.41786501 0.028992385 0.073942818
0.38964647 0.032535501 0.073876038
0.39344802 0.033577383 0.074338451
0.39651504 0.034067735 0.072963201
0.40653881 0.033590812 0.075714886
0.41022858 0.032607876 0.073936418
0.39442059 -0.032046378 0.078970447
0.38341081 -0.028148249 0.077563815
0.38613892 -0.029438207 0.078017041
0.38997668 -0.03094914 0.078347825
0.39254877 -0.031721558 0.077198416
0.41422796 -0.028928518 0.079122208
0.37883145 -0.024971869 0.077870168
0.38148758 -0.026962034 0.078073062
0.41815236 -0.026705155 0.078322485
0.42085555 -0.024773523 0.077741683
0.37487149 -0.021268299 0.078017317
0.37691706 -0.023310119 0.078243621
0.42283726 -0.022875221 0.077980354
0.42471951 -0.020875724 0.077319361
0.37145737 -0.016945215 0.077870235
0.37284431 -0.018890392 0.077965759
0.42693281 -0.018465728 0.078268521
0.42839825 -0.016479684 0.078456737
0.36981013 -0.014066156 0.077990867
0.42972589 -0.013998812 0.078056253
0.36772117 -0.0088319667 0.077973105
0.36841372 -0.010907669 0.078084096
0.43128005 -0.0099975318 0.078001432
0.36693746 -0.005806243 0.07802505
0.43192104 -0.0076451092 0.077670999
0.43234047 -0.0056733238 0.077977031
0.3664051 -0.0019754849 0.078072272
0.43282223 -0.0021528148 0.078098834
0.36643857 0.0018936307 0.078045897
0.43298513 0.0018187029 0.077817246
0.36689082 0.0060145091 0.077987656
0.43260416 0.0059637083 0.078038298
0.36758175 0.0093424935 0.078033656
0.3681649 0.011186378 0.077910624
0.43144232 0.01065206 0.078128427
0.43211612 0.0084670037 0.078172393
0.36917692 0.013985855 0.078026071
0.43011776 0.01415473 0.07794942
0.37098965 0.017861994 0.078041062
0.37226528 0.019808082 0.077900745
0.42746818 0.019489357 0.078096695
0.42860135 0.017516192 0.077867366
0.37418213 0.022099497 0.077990934
0.42385396 0.023867756 0.07814344
0.42563543 0.02187185 0.077876009
0.37801254 0.026068065 0.077986322
0.41963124 0.027695294 0.077598505
0.42193481 0.025732553 0.078347094
0.38177979 0.029175026 0.077968925
0.38569582 0.031078856 0.078086816
0.41419765 0.031227229 0.078129806
0.41752878 0.029300256 0.078097068
0.39007512 0.032691695 0.077976868
0.39438003 0.033844415 0.077947319
0.40981111 0.032818057 0.078097947
0.41209918 0.032062374 0.077364288
0.38375202 -0.02823404 0.082331657
0.38575727 -0.029189691 0.081724718
0.38991988 -0.030841492 0.081910253
0.39268529 -0.031609252 0.083798699
0.41448349 -0.028764913 0.083341211
0.37880704 -0.024863459 0.082030304
0.38144085 -0.026836749 0.081929855
0.41821438 -0.026627362 0.082177289
0.42075562 -0.024794376 0.081783012
0.37490705 -0.021247804 0.081905812
0.37685856 -0.02318476 0.08209645
0.42281342 -0.022854196 0.0817395
0.42482904 -0.020820608 0.081511416
0.37141773 -0.016807631 0.081964768
0.37285477 -0.018829675 0.082063541
0.42701367 -0.018368915 0.082101725
0.42833272 -0.016523989 0.082240961
0.36982405 -0.01403016 0.081992961
0.42975116 -0.013871226 0.08205878
0.36773017 -0.008873147 0.082108721
0.36839196 -0.010785357 0.0820041
0.43127665 -0.0099994987 0.082116798
0.3669956 -0.0061141024 0.082040675
0.43193451 -0.0076699411 0.082030617
0.4323546 -0.0056422055 0.081824437
0.36639589 -0.0019469555 0.082007259
0.43290576 -0.0019836519 0.082110345
0.36644864 0.0020055799 0.08202742
0.43302387 0.0020544978 0.081922494
0.36691192 0.0060149375 0.082068756
0.432632 0.0060551134 0.082055561
0.36760589 0.0093476949 0.082001694
0.36820233 0.011260893 0.081993312
0.43155208 0.0105074 0.082117461
0.43213272 0.0085439635 0.081927188
0.3692179 0.014031857 0.08192464
0.43022069 0.013980734 0.082090802
0.37104994 0.01791814 0.082022317
0.37231916 0.019854348 0.082062431
0.42757669 0.019410271 0.082026832
0.42869779 0.017394435 0.081973083
0.37405431 0.021997891 0.082015425
0.4239803 0.023810014 0.081067137
0.42562574 0.021966346 0.082045846
0.37791178 0.025994807 0.081985258
0.41961661 0.02778214 0.081923865
0.42180234 0.025924657 0.082126148
0.38182336 0.029221538 0.082073793
0.3857601 0.031156957 0.081937969
0.4146533 0.031081051 0.082003623
0.41791263 0.029089058 0.081887901
0.38791668 0.032006837 0.082771972
0.38992444 0.032685846 0.081789516
0.39326692 0.033700306 0.081832498
0.39801133 0.034418095 0.083397247
0.40799409 0.033343572 0.080345303
0.41053531 0.032658748 0.082092918
0.39528996 -0.032078743 0.084005088
0.38363233 -0.028101766 0.085363328
0.3859981 -0.029201273 0.085922584
0.38926601 -0.030541833 0.085732058
0.39311656 -0.031623255 0.086419143
0.41122288 -0.030290106 0.084665462
0.41424987 -0.028853266 0.087418236
0.37895134 -0.024904352 0.086032964
0.3816427 -0.026883921 0.08592426
0.41587076 -0.027986942 0.086787224
0.41811079 -0.026628671 0.085949123
0.42082623 -0.024692064 0.08573553
0.37479553 -0.021058341 0.08602573
0.37686446 -0.023106746 0.086071841
0.42283636 -0.022816231 0.085537657
0.4249157 -0.020774158 0.085542537
0.37143874 -0.016767502 0.085991777
0.37289244 -0.018813442 0.085972361
0.42689213 -0.018442815 0.086111143
0.42826962 -0.016495509 0.085940808
0.36977339 -0.013858254 0.086005993
0.42959464 -0.014066046 0.086119942
0.3677434 -0.0088961376 0.085973606
0.36845049 -0.010841275 0.08598087
0.43119547 -0.010094579 0.086052887
0.36698353 -0.0060267765 0.086066179
0.4319253 -0.0078072958 0.086652435
0.43235672 -0.0057746666 0.08590579
0.36642233 -0.0019752018 0.085888438
0.43293652 -0.0019737238 0.085976012
0.36646414 0.0020496519 0.085930489
0.43306759 0.0020159113 0.086026475
0.36692658 0.0060260263 0.086042687
0.43266356 0.0060455031 0.085948966
0.36765033 0.0094102751 0.085930213
0.36822602 0.011275951 0.08616206
0.4315502 0.010652654 0.085934572
0.43214786 0.0086829402 0.085971624
0.36917755 0.013905541 0.085971452
0.43022996 0.014023804 0.086054169
0.37105671 0.017886871 0.085985303
0.37230703 0.019846333 0.085947819
0.42764562 0.019385958 0.086079061
0.42867747 0.01744098 0.086080134
0.37404469 0.022030892 0.086017743
0.42575568 0.021909703 0.086110123
0.37789753 0.026008161 0.086011589
0.41988254 0.027642177 0.086261272
0.42221451 0.025634123 0.085769773
0.38192496 0.029281717 0.086025052
0.38610712 0.031359199 0.085815869
0.41475764 0.031143168 0.086161017
0.41783288 0.029198654 0.085987173
0.39000314 0.03279648 0.086094514
0.39411724 0.033924021 0.086188041
0.39626363 0.034313135 0.084882528
0.40754172 0.033573505 0.084958665
0.41064441 0.032720834 0.086267352
0.41237584 0.03213314 0.085679114
0.3857626 -0.029002363 0.089958914
0.38993868 -0.030628487 0.090376802
0.39233112 -0.031374551 0.088881999
0.41166851 -0.030048436 0.089126453
0.41434279 -0.028757626 0.091051459
0.37889403 -0.024783472 0.089986786
0.38164309 -0.02678192 0.090001263
0.41588229 -0.027926432 0.090273038
0.41805166 -0.026575029 0.089906581
0.42092842 -0.02459811 0.089847758
0.37493101 -0.021120455 0.089828409
0.3769705 -0.023124592 0.090003103
0.4229036 -0.022762176 0.089365959
0.42504579 -0.020640608 0.089838155
0.37154272 -0.016871018 0.089921676
0.37298876 -0.018848354 0.09021765
0.42703125 -0.018109567 0.090109818
0.42829847 -0.016189182 0.089807183
0.36994427 -0.014120627 0.090013228
0.42953378 -0.013993148 0.089959152
0.3677533 -0.0088515645 0.089766167
0.36852157 -0.010954156 0.090106696
0.43123093 -0.0099913049 0.090031654
0.36698997 -0.0058967308 0.090060249
0.43194795 -0.0077037606 0.090595223
0.43238941 -0.0057732388 0.089937024
0.36648452 -0.0020214536 0.089873731
0.43294266 -0.0019614976 0.089906715
0.36648399 0.0020962006 0.089862503
0.43309307 0.0020216249 0.090028785
0.36692962 0.0059318221 0.090060718
0.43268475 0.0060541695 0.089943342
0.36765659 0.0093288608 0.089981399
0.3682535 0.011302658 0.090101562
0.43157935 0.01070288 0.090063177
0.43217415 0.0087126698 0.090076506
0.36918998 0.013908342 0.0900089
0.43025431 0.014073768 0.090033069
0.3710621 0.017852578 0.090071484
0.3722958 0.019837899 0.090042718
0.42772609 0.019361848 0.090066552
0.42872679 0.017452722 0.090133809
0.37398401 0.021992944 0.089993924
0.42587787 0.021871377 0.090060681
0.37593952 0.024225775 0.090346754
0.37807119 0.026183629 0.0900084
0.41958722 0.027948618 0.090242244
0.42198464 0.025922777 0.08989127
0.42402717 0.024040032 0.091086224
0.38177207 0.029182047 0.090047091
0.38575 0.031286385 0.08984343
0.41477066 0.031155238 0.090239063
0.41793776 0.029199559 0.090021774
0.38948497 0.032708574 0.090228073
0.3935279 0.033854075 0.089997485
0.4060294 0.03402254 0.089712322
0.41017729 0.032951973 0.090001598
0.41221857 0.032304637 0.091496423
0.38395876 -0.02806242 0.09384454
0.38585812 -0.02895727 0.093923956
0.38968179 -0.030467382 0.094026662
0.41178027 -0.029943615 0.092708126
0.41442171 -0.028668975 0.094574772
0.37895501 -0.024751376 0.093808204
0.38167006 -0.026683623 0.094058171
0.41589358 -0.02786722 0.093684398
0.41800603 -0.026517805 0.093799636
0.42068872 -0.02475982 0.094423972
0.37495801 -0.021056121 0.093932785
0.37700289 -0.02306251 0.094033986
0.42270401 -0.022999795 0.093481109
0.42485538 -0.020834725 0.093899108
0.3715035 -0.016722061 0.093951084
0.37294739 -0.018710412 0.094051264
0.42683417 -0.018253153 0.094025992
0.4281112 -0.016355123 0.094209731
0.3699117 -0.013959476 0.094014518
0.42954826 -0.013950907 0.093825243
0.36781675 -0.0088520255 0.093882516
0.36846757 -0.010759483 0.094108924
0.43125647 -0.01001309 0.094048403
0.36711547 -0.0061160913 0.094032682
0.43193686 -0.0077501549 0.094347157
0.4324044 -0.0056926678 0.093948819
0.36655277 -0.0020079769 0.093852535
0.43295759 -0.0019845127 0.093970947
0.36650714 0.0020129592 0.093911231
0.4331063 0.0020365049 0.093847811
0.36698401 0.0060469131 0.094098017
0.43273756 0.0059549389 0.093810529
0.36760736 0.0090416307 0.093821771
0.36823624 0.011168516 0.094144054
0.43159363 0.010775726 0.093950629
0.432183 0.008783184 0.093986608
0.36924604 0.013966091 0.094015025
0.43029106 0.014110615 0.094061553
0.37090576 0.017492566 0.093986839
0.37216589 0.019586606 0.094143853
0.42774785 0.019391641 0.093800932
0.42868868 0.017621981 0.094165936
0.37396976 0.02198635 0.094016276
0.4258379 0.022010664 0.093983904
0.37585956 0.024188515 0.094135635
0.37794623 0.026119515 0.0939942
0.41981992 0.02781252 0.094293438
0.42210722 0.025897739 0.093909293
0.42409182 0.02401118 0.09245038
0.38165668 0.029116575 0.093991891
0.38528618 0.031157089 0.094005264
0.4146564 0.031214405 0.093875885
0.4178454 0.02926119 0.094205417
0.38785103 0.032273043 0.095077403
0.39016551 0.032987632 0.093849927
0.39374501 0.034011953 0.094109505
0.39805713 0.034665097 0.095163591
0.4103547 0.032986172 0.09368287
0.41268599 0.032169089 0.094244123
0.38603333 -0.028818993 0.098019667
0.38924238 -0.030126482 0.098072946
0.39373049 -0.031395432 0.097956091
0.41188952 -0.029841123 0.096210256
0.41388074 -0.028868895 0.098440915
0.37913266 -0.024783727 0.098037496
0.38220698 -0.0268574 0.097927235
0.41581908 -0.027817287 0.098443106
0.4180645 -0.02640288 0.09805195
0.42091432 -0.024492756 0.098388575
0.37501788 -0.020984309 0.097829826
0.37700841 -0.022947276 0.098032735
0.42291072 -0.022811327 0.097907133
0.42471802 -0.020942779 0.097844012
0.37156677 -0.016652562 0.09789329
0.37299246 -0.018597702 0.098059081
0.42671633 -0.018391946 0.097919732
0.42821681 -0.01631259 0.098677009
0.37003773 -0.01402699 0.09800522
0.42960268 -0.013959065 0.097799674
0.36783779 -0.0085928394 0.097804844
0.36845818 -0.010517586 0.098149329
0.43126106 -0.010068686 0.098035984
0.36725539 -0.0060322913 0.09802565
0.43192792 -0.0078633036 0.09801615
0.43236417 -0.005760177 0.097967528
0.36663917 -0.0019929896 0.097983688
0.43296772 -0.0019653968 0.098067857
0.3665396 0.0019235808 0.097951442
0.43314239 0.0020090917 0.097738221
0.36705369 0.0060726055 0.098083541
0.43278953 0.0059510884 0.097968966
0.36765939 0.0090612238 0.097975597
0.3683244 0.011175165 0.098088391
0.43160358 0.0109031 0.097949311
0.4322401 0.0087537216 0.097985156
0.3693397 0.013952751 0.097981945
0.43037292 0.014018063 0.097960413
0.37097371 0.017476136 0.097931258
0.37222996 0.019577572 0.098130614
0.4276821 0.019491959 0.098059826
0.42876899 0.017476214 0.098159678
0.37397489 0.021945847 0.098010682
0.42582756 0.022022275 0.098017566
0.37584847 0.02416574 0.098016314
0.37784827 0.02608186 0.098000243
0.4197695 0.02768771 0.098110437
0.42217997 0.025784791 0.098106675
0.38166559 0.029159039 0.098149814
0.38526544 0.0312218 0.097843513
0.41445169 0.031261414 0.098041207
0.41764727 0.029182283 0.098076068
0.3874428 0.032193948 0.098280713
0.3899864 0.033015426 0.098027445
0.39319944 0.033898287 0.098221458
0.39742935 0.034592982 0.098169066
0.40702918 0.033947468 0.097747952
0.41038251 0.03303929 0.097645007
0.4124192 0.0322925 0.097744167
0.38604778 -0.028518304 0.10202901
0.38948458 -0.02988092 0.10191194
0.39374551 -0.031101914 0.1020302
0.4119139 -0.029718252 0.10256225
0.41417798 -0.028629893 0.10203826
0.37911379 -0.024642268 0.10188604
0.38204154 -0.026549954 0.1020377
0.41550893 -0.027786558 0.1030428
0.41801155 -0.026239788 0.10214439
0.42054063 -0.024502948 0.10186224
0.37507188 -0.020824347 0.10197204
0.37703454 -0.022795577 0.10217448
0.42253247 -0.02280663 0.10206657
0.4247373 -0.020789329 0.10184295
0.37167895 -0.01650116 0.10203876
0.37316397 -0.018535264 0.10203248
0.42680651 -0.018168665 0.1022243
0.42817628 -0.016213968 0.10206207
0.3701956 -0.013969203 0.1020136
0.42949495 -0.014093764 0.10198464
0.36789751 -0.0082670515 0.10139972
0.36863089 -0.010251603 0.10212111
0.43126455 -0.010004566 0.10202554
0.3674593 -0.0059407051 0.10193761
0.36806202 -0.0079732314 0.10357568
0.43194404 -0.0077043111 0.10237747
0.43235442 -0.0057360958 0.1020185
0.36681706 -0.0020566829 0.10208015
0.43296173 -0.0020022236 0.10212466
0.36663321 0.0019384386 0.10213371
0.43316597 0.0019896219 0.10204893
0.36714703 0.0060304524 0.10200533
0.43280423 0.0060466984 0.10210458
0.36776161 0.0088674743 0.10189901
0.36838877 0.010965091 0.10205886
0.43162131 0.01091905 0.10201106
0.43224359 0.0088695781 0.10213558
0.36947361 0.014002564 0.10198651
0.43034491 0.014016774 0.10198071
0.37109455 0.017524403 0.10210068
0.37232968 0.019536668 0.10212237
0.42759362 0.01926164 0.10213882
0.42885795 0.01716168 0.10210636
0.37410095 0.021943221 0.10198715
0.42394927 0.023781864 0.10354967
0.42570925 0.021900956 0.10209056
0.37587652 0.024126733 0.10179796
0.37787247 0.026024856 0.102074
0.38019899 0.027987467 0.10317684
0.41931057 0.027653463 0.10246642
0.42201653 0.025694896 0.10224693
0.38199374 0.029360048 0.10194774
0.38556942 0.031345107 0.10218393
0.41465396 0.030961659 0.10210838
0.41745889 0.029035838 0.10178386
0.38740584 0.032114666 0.10235248
0.38990453 0.032925855 0.10212278
0.39320296 0.033811592 0.10216117
0.3970474 0.034511834 0.10164652
0.40235555 0.034537341 0.10246196
0.40623498 0.034000926 0.10294713
0.40997607 0.033041712 0.10216887
0.41228017 0.032218356 0.10231408
0.38696861 -0.028480064 0.10581258
0.38991162 -0.029476304 0.10634825
0.39398673 -0.030629383 0.10647347
0.39823228 -0.031248432 0.10724083
0.40196243 -0.031334601 0.10640501
0.40607715 -0.030663328 0.10678755
0.41010857 -0.02972172 0.10707691
0.41334283 -0.028594803 0.10634547
0.37953553 -0.024583997 0.105449
0.38195336 -0.025810817 0.10631132
0.38524529 -0.02743114 0.10653127
0.41513696 -0.027429134 0.10692251
0.41802126 -0.025730038 0.10642467
0.42034203 -0.024219554 0.10553414
0.3754665 -0.020512944 0.10582835
0.3775312 -0.022527974 0.10628469
0.42241532 -0.022264993 0.10639617
0.42448339 -0.020526895 0.10546201
0.37181765 -0.01609173 0.10510555
0.37350771 -0.018007657 0.10609451
0.42623401 -0.017989239 0.10639795
0.37079111 -0.013864974 0.10600474
0.37227574 -0.015759027 0.10738293
0.42766476 -0.015486524 0.10751375
0.42911658 -0.013833435 0.10621494
0.3691591 -0.010046639 0.1060881
0.43087745 -0.010010171 0.1063734
0.36773068 -0.0052022175 0.10555441
0.3682797 -0.0068477918 0.10657226
0.43170771 -0.00677884 0.10687274
0.43228078 -0.0052703358 0.1057566
0.36731783 -0.0020363212 0.10604246
0.4326323 -0.0020163485 0.10633919
0.36716205 0.0020236147 0.10606682
0.43279541 0.0020299244 0.10623444
0.36750436 0.0059539066 0.10594467
0.36809 0.0074303942 0.10755563
0.43185174 0.0072177383 0.10761651
0.43246174 0.0059328796 0.10613484
0.36788484 0.0086726714 0.10511954
0.36859882 0.010294581 0.10623803
0.43140078 0.010178842 0.10636733
0.43216783 0.0086377459 0.10520388
0.36993963 0.01400961 0.10603333
0.42997915 0.013921757 0.10632595
0.37132698 0.017141338 0.10580018
0.37259263 0.019097703 0.10635325
0.42720488 0.018799135 0.10646564
0.42853457 0.01688502 0.1059134
0.37442508 0.021759791 0.1060196
0.37615332 0.023493746 0.10700609
0.42360726 0.023305625 0.1066195
0.42534295 0.021473147 0.10592899
0.37808484 0.025680926 0.10599384
0.38062644 0.027681889 0.10676181
0.41920403 0.027400317 0.10629676
0.42177022 0.025309425 0.10614593
0.38234204 0.0291095 0.10594011
0.38588229 0.03086216 0.10614708
0.38862008 0.031746197 0.10725584
0.41122246 0.031749308 0.10743513
0.41399184 0.030844657 0.10625277
0.41719228 0.028870638 0.10624751
0.39006686 0.032529492 0.10591006
0.39397985 0.033487938 0.10627043
0.39778888 0.034045625 0.10591552
0.40210748 0.033963174 0.10615867
0.40607354 0.033378527 0.10643849
0.40970474 0.032590605 0.10594491
0.38728946 -0.028004866 0.10802
0.39048728 -0.028623674 0.10963718
0.39406052 -0.029362086 0.11025362
0.39800584 -0.030085912 0.11010689
0.40207264 -0.029877359 0.11038722
0.40613592 -0.029258871 0.11036998
0.40979671 -0.028681824 0.10967621
0.41241089 -0.028304344 0.10875563
0.38262466 -0.024896653 0.10977404
0.38600749 -0.026487373 0.11018046
0.38928825 -0.027602702 0.11097311
0.41059223 -0.027479539 0.11132767
0.41409755 -0.026532449 0.11031732
0.4173567 -0.024864681 0.10990502
0.37597597 -0.020042196 0.10835835
0.37830833 -0.021560945 0.10981128
0.38102841 -0.023274334 0.11080149
0.41894877 -0.023232315 0.11077337
0.42164689 -0.021543527 0.10970573
0.37471536 -0.017584257 0.10966621
0.37663308 -0.019114478 0.11080366
0.42312986 -0.019142469 0.11099796
0.42509556 -0.01749978 0.10985716
0.37144879 -0.01296186 0.10926293
0.37295258 -0.01448107 0.1104647
0.42690054 -0.014381398 0.11036723
0.42854002 -0.012888219 0.10905922
0.37039396 -0.010065783 0.11000212
0.42774785 -0.011653128 0.11168998
0.42936072 -0.0099714389 0.11000827
0.36916158 -0.0060203578 0.11013336
0.43055764 -0.0059854677 0.11001724
0.3678593 -0.0015081357 0.10843743
0.36863723 -0.0021006106 0.11036465
0.43110994 -0.0020511386 0.11030095
0.43210816 -0.0013252369 0.1083385
0.3678396 0.0020482226 0.10855792
0.36855274 0.0020218033 0.11047357
0.43121615 0.0020499048 0.11041729
0.43212435 0.0019464535 0.10847427
0.36788258 0.0048492327 0.10831878
0.36887822 0.0061025596 0.11026117
0.43090296 0.0060781129 0.1101951
0.43210381 0.0045436854 0.1082184
0.36976579 0.009988836 0.11003104
0.42998633 0.010058418 0.11004679
0.37108698 0.013809027 0.10974442
0.372379 0.014887734 0.11135106
0.42747292 0.014832377 0.11107791
0.42883724 0.013583518 0.10973173
0.37174332 0.016533827 0.10856452
0.37345216 0.018064421 0.11020209
0.42383713 0.019639017 0.11187395
0.42619032 0.017947383 0.11008382
0.42816901 0.016155422 0.10849858
0.37512457 0.020998631 0.10956348
0.3770853 0.022682862 0.11041061
0.42262226 0.02229725 0.11034536
0.42463982 0.020731393 0.10914326
0.37884066 0.02483361 0.10969959
0.38167518 0.026664948 0.11035686
0.38442144 0.027766967 0.11152506
0.41575137 0.027692886 0.11171719
0.4183695 0.02650393 0.11041662
0.42085934 0.024794294 0.10941146
0.38327649 0.028467167 0.10906285
0.38604262 0.029465873 0.11004455
0.38983786 0.030894212 0.1102746
0.39362279 0.03145083 0.11114883
0.39720559 0.031721245 0.11168572
0.40260386 0.031843074 0.11151722
0.40630725 0.031579636 0.11109812
0.41018492 0.030992715 0.11030509
0.41397253 0.029508458 0.11014433
0.41665736 0.028462227 0.1092126
0.39122206 0.03219036 0.10851169
0.39417922 0.03251962 0.10918014
0.39802289 0.032707762 0.10987146
0.40182778 0.032730881 0.109745
0.40546525 0.032540269 0.10921641
0.4080734 0.032389343 0.10828037
0.39474657 -0.028386146 0.11246737
0.39793143 -0.028563043 0.11289431
0.40185913 -0.028501837 0.11280104
0.40517262 -0.028303128 0.11238556
0.38642994 -0.024918303 0.11340285
0.38992146 -0.026056325 0.11405766
0.39384228 -0.027051225 0.11429735
0.39796868 -0.027248183 0.11497136
0.40203473 -0.027200243 0.11489492
0.40624082 -0.026947604 0.11428876
0.41017628 -0.025941962 0.11404858
0.4135021 -0.024870746 0.11345728
0.37932336 -0.020473959 0.11278655
0.38201788 -0.021859281 0.11391988
0.3853353 -0.023287822 0.11495361
0.41476962 -0.023204489 0.11477004
0.41784024 -0.021829179 0.11382481
0.420513 -0.020583035 0.11267819
0.37549821 -0.016334547 0.11252169
0.37788537 -0.017875884 0.11403356
0.38047993 -0.019396035 0.11546455
0.41947699 -0.019487454 0.1150806
0.42195702 -0.017934904 0.11390729
0.42427376 -0.016477734 0.11241772
