# .PCD v0.7 - Point Cloud Data file format
VERSION 0.7
FIELDS x y z
SIZE 4 4 4
TYPE F F F
COUNT 1 1 1
WIDTH 1355
HEIGHT 1
VIEWPOINT 0 0 0 1 0 0 0
POINTS 1355
DATA ascii
0.36740494 -0.0099996105 0.022012433
0.36811489 -0.011739162 0.022821253
0.4313736 -0.0099907611 0.021840742
0.36642829 -0.0060586794 0.022012522
0.43192241 -0.0077082044 0.022037337
0.43230307 -0.0055972864 0.021944392
0.3661055 -0.0019066398 0.022039806
0.4326486 -0.0020171502 0.021865619
0.36629251 0.0020589132 0.021939483
0.43262008 0.0019664837 0.021710057
0.36689898 0.0059582549 0.022073429
0.43176314 0.0071025118 0.021985067
0.43227261 0.0050675096 0.022376474
0.36763108 0.0088934125 0.022038475
0.36832622 0.010938856 0.021928366
0.43084735 0.010180131 0.022049069
0.36963883 0.014107044 0.021976776
0.4293797 0.014031188 0.022122676
0.37133101 0.01725932 0.02198538
0.37269038 0.019149758 0.022026552
0.42686814 0.018552126 0.022018945
0.4282307 0.016346451 0.022249274
0.3746362 0.021497555 0.021952866
0.37653482 0.023545906 0.022023134
0.42282909 0.023157017 0.022464547
0.42470562 0.02121328 0.022076642
0.37852442 0.025443293 0.021999223
0.38126859 0.027421249 0.021944741
0.41876221 0.026729809 0.021918731
0.42095867 0.024929816 0.022400424
0.3831858 0.028571341 0.021960845
0.38616541 0.029943986 0.021877471
0.39013714 0.031429011 0.022002511
0.41005358 0.031361315 0.021874147
0.41390923 0.029729931 0.021899385
0.41660881 0.028265072 0.022321086
0.39406779 0.032441966 0.022022588
0.39804098 0.032971267 0.022005407
0.4019511 0.032863371 0.021809043
0.40598232 0.032326974 0.021917408
0.39008397 -0.032192275 0.025865315
0.39400175 -0.033005107 0.025928687
0.39808381 -0.033409111 0.025800906
0.40184623 -0.033352152 0.025971781
0.40582418 -0.03274795 0.026054209
0.4081412 -0.032188773 0.026618481
0.38246796 -0.028774561 0.025776252
0.3858411 -0.030557854 0.025970377
0.38889849 -0.031816494 0.026791304
0.41030267 -0.031544372 0.026520947
0.41384852 -0.030142767 0.02628839
0.41682497 -0.028644489 0.026403798
0.37809524 -0.025530903 0.026092701
0.38053113 -0.02752235 0.025891911
0.41907522 -0.027232736 0.025735432
0.42113531 -0.025603035 0.026145155
0.37427065 -0.021754034 0.026114017
0.37611249 -0.023718117 0.025280459
0.423136 -0.023701627 0.02623185
0.42526805 -0.021390097 0.026043346
0.37098739 -0.017586602 0.026058272
0.37231049 -0.019427644 0.025644751
0.427414 -0.018651929 0.026073933
0.42850673 -0.016984988 0.025842674
0.36904824 -0.014013552 0.025944397
0.43006796 -0.013935134 0.026106875
0.36742017 -0.0099299187 0.026040994
0.36810756 -0.011808845 0.027110472
0.43137598 -0.010089762 0.025951557
0.36648381 -0.0060907481 0.02605672
0.43194354 -0.0077274907 0.026795745
0.43230549 -0.0057423972 0.025956389
0.36613747 -0.0019328516 0.02589302
0.43270123 -0.0019311651 0.025770623
0.36632636 0.0020341447 0.025975091
0.43264252 0.0022392184 0.025737168
0.36690068 0.0058415108 0.026003199
0.43178239 0.0071308804 0.025957389
0.43226966 0.0051937802 0.026124647
0.36768755 0.0089580156 0.0260967
0.36833897 0.010984982 0.02598599
0.43094075 0.010006344 0.025979862
0.36966118 0.014110117 0.026020231
0.42952362 0.013772451 0.026040718
0.37134209 0.017226556 0.0259152
0.37270564 0.019142944 0.026140189
0.42688605 0.018602034 0.026036358
0.42829609 0.016362488 0.026111457
0.37466785 0.021503398 0.025920413
0.37661681 0.023551704 0.025964854
0.42291924 0.02313407 0.026353799
0.42486462 0.021107778 0.025887862
0.37850693 0.025407599 0.026045145
0.38121566 0.027334267 0.025857883
0.4185299 0.026975881 0.02590221
0.42098421 0.024980603 0.02645332
0.38316908 0.028552273 0.025992313
0.38614187 0.029957533 0.025813537
0.38997823 0.031380013 0.026038561
0.40983316 0.031454004 0.026012426
0.4139837 0.029750161 0.026052481
0.41666114 0.028260833 0.026289569
0.39380443 0.03238916 0.025974449
0.39792994 0.032974236 0.026167262
0.40217915 0.032874294 0.025904834
0.4060412 0.032359309 0.02615664
0.39108828 -0.032428995 0.030319246
0.39402509 -0.032949012 0.029935289
0.3979952 -0.033347987 0.029869042
0.40222278 -0.033224087 0.030009633
0.40605956 -0.032692097 0.030099139
0.40835804 -0.032136083 0.030650141
0.38260776 -0.02882945 0.030006522
0.38586646 -0.030500283 0.030317096
0.38863942 -0.03168869 0.029635889
0.41023996 -0.031573836 0.030685598
0.41381127 -0.030105978 0.029963367
0.41707042 -0.028442478 0.03029502
0.37812781 -0.025536355 0.029928153
0.38069159 -0.02758975 0.030020069
0.41902241 -0.027256666 0.030023681
0.42145008 -0.025285453 0.029744536
0.37436253 -0.021793874 0.030000467
0.37637568 -0.023859585 0.030854022
0.42344883 -0.023362305 0.030137088
0.42522746 -0.021399606 0.029873263
0.37093869 -0.017482441 0.029997801
0.37242344 -0.019516464 0.030005209
0.42729235 -0.018799603 0.029680852
0.42850947 -0.016959967 0.030054674
0.36903146 -0.014000804 0.029965337
0.43005741 -0.013987983 0.029883159
0.36740124 -0.0097265253 0.030094484
0.36812648 -0.011818813 0.030140007
0.43141353 -0.010041966 0.029968554
0.36647484 -0.0058044656 0.02992053
0.43196049 -0.0077247377 0.030517148
0.43232128 -0.0057420717 0.029960727
0.36618242 -0.0019944164 0.029889651
0.4327347 -0.0020898823 0.029754074
0.36635619 0.0018161315 0.029907744
0.43269867 0.0020182836 0.029705122
0.36696893 0.006059539 0.030045999
0.43182361 0.0070813666 0.030078335
0.43229035 0.0051688761 0.030129641
0.36773628 0.0090531027 0.030185044
0.36836046 0.011005477 0.030050954
0.43105981 0.0097570354 0.030050904
0.36958513 0.014029271 0.03000354
0.42948416 0.013944404 0.03004203
0.37129629 0.017262844 0.029967565
0.37264085 0.019110901 0.030140292
0.42700851 0.018496795 0.030050611
0.42835903 0.016378185 0.029892342
0.3746348 0.021469455 0.029921716
0.37660494 0.023507072 0.029908139
0.42308974 0.023047937 0.030240025
0.4249225 0.021114565 0.029730767
0.37851092 0.025380448 0.030000992
0.38116521 0.027295657 0.029926293
0.41876391 0.026873389 0.029926149
0.42105779 0.024998231 0.030281564
0.38300842 0.028476387 0.029991949
0.3859576 0.029896528 0.029837554
0.38994986 0.031382114 0.030040992
0.41009715 0.031388972 0.0301746
0.41418919 0.029710451 0.030235693
0.41663775 0.028379958 0.029857159
0.39354247 0.032352466 0.030125069
0.39783016 0.032988098 0.029895676
0.40173995 0.032960627 0.03021834
0.40580273 0.032449827 0.03002876
0.40810421 0.032090981 0.02874377
0.39072517 -0.032256585 0.033979774
0.3936893 -0.032888267 0.034327693
0.39793727 -0.033277031 0.033746429
0.40208054 -0.033196636 0.034025192
0.40587726 -0.032692343 0.034194265
0.40855581 -0.032124273 0.03475149
0.38266796 -0.028850136 0.033857163
0.38609448 -0.03058558 0.034090899
0.38899219 -0.031684175 0.034140915
0.41044855 -0.03149993 0.034560684
0.41410884 -0.029967424 0.033821683
0.41672078 -0.028655434 0.033899985
0.37809655 -0.025484217 0.033952944
0.38065448 -0.027535163 0.034405351
0.41860467 -0.027444791 0.034102097
0.42121533 -0.025426673 0.033885848
0.37441698 -0.021781949 0.034049265
0.37623855 -0.023706904 0.034165062
0.42356387 -0.023164209 0.033836223
0.42526069 -0.021310123 0.033846676
0.3710089 -0.01747755 0.033947937
0.37248087 -0.019488573 0.033894636
0.42721492 -0.01888106 0.033836246
0.42856407 -0.016862441 0.033730585
0.36907041 -0.014033804 0.033997081
0.42995137 -0.014201242 0.033965934
0.36742753 -0.0096299499 0.034026224
0.36810696 -0.011734247 0.03389658
0.4314622 -0.0099444492 0.034007944
0.36652869 -0.0059590228 0.033955436
0.43198112 -0.0077220583 0.034178551
0.43232694 -0.0058011101 0.034009591
0.36619905 -0.0020854902 0.034138847
0.43277109 -0.0020817043 0.033719871
0.36642063 0.0019597232 0.033987973
0.43273002 0.0020932215 0.03383122
0.36699769 0.0060629682 0.03400404
0.43181309 0.0072660926 0.03401763
0.4322955 0.0052578473 0.034080312
0.36771604 0.008874163 0.034036852
0.36836064 0.010859376 0.034064412
0.43102753 0.0099836336 0.034104563
0.36958364 0.014167641 0.034030162
0.4295598 0.013829352 0.033922516
0.37127125 0.017265433 0.033910654
0.3726061 0.01915814 0.034077238
0.42715135 0.018371221 0.033996291
0.42842197 0.016345331 0.033947356
0.37456742 0.021415388 0.033935171
0.37659562 0.0235286 0.033872854
0.42297649 0.023219792 0.034012202
0.42501712 0.021094877 0.033826295
0.37850103 0.025412783 0.034110703
0.38109666 0.027279999 0.033841342
0.4188028 0.026945582 0.033935905
0.4212122 0.024923867 0.034101851
0.38300946 0.028495047 0.033941701
0.38581446 0.029863231 0.033906117
0.38975713 0.031329021 0.033984754
0.41049427 0.031259634 0.034010671
0.41410422 0.029797086 0.034010101
0.41681671 0.028355172 0.033954475
0.39377066 0.032413177 0.034161519
0.39765093 0.033005744 0.033768598
0.40195787 0.032988943 0.034226488
0.40622371 0.03243345 0.034072932
0.39122066 -0.032337174 0.03834413
0.39374655 -0.032838795 0.03798813
0.39802498 -0.03324255 0.037913013
0.40193477 -0.033182062 0.038016904
0.40611234 -0.032627814 0.038072262
0.4087753 -0.032048106 0.038566485
0.38263202 -0.028746352 0.037941784
0.38571194 -0.030352913 0.037704118
0.38901573 -0.031688683 0.038206398
0.4106656 -0.031397574 0.038274448
0.41437876 -0.029816208 0.038375273
0.41708097 -0.028398305 0.03782497
0.37817207 -0.025543956 0.038039193
0.38067603 -0.02749959 0.038131084
0.41898224 -0.027136065 0.038224414
0.42164758 -0.02498661 0.037593596
0.37440741 -0.021742597 0.038096491
0.37625939 -0.023733538 0.037643742
0.4235768 -0.023132252 0.037189391
0.42540199 -0.021080662 0.038242951
0.37101483 -0.017403271 0.037978176
0.37240955 -0.019313464 0.038000923
0.42721269 -0.01884789 0.03806505
0.42858014 -0.016853655 0.037816357
0.36908421 -0.01397798 0.037937962
0.43002555 -0.014042675 0.037957709
0.36749029 -0.0097185271 0.037990063
0.36810425 -0.011592289 0.037928615
0.43149948 -0.0098420382 0.038053263
0.36656764 -0.0060924469 0.037967455
0.43196353 -0.0079137264 0.038512301
0.43233526 -0.0058521936 0.037929885
0.36621574 -0.0020048858 0.038080454
0.43280753 -0.0018179673 0.038073871
0.36645514 0.002029683 0.038070925
0.43277621 0.0018743912 0.038234226
0.36704165 0.0061162338 0.03797476
0.43184337 0.007314458 0.038137894
0.43230334 0.0053457655 0.037957907
0.36776847 0.0089019043 0.037984256
0.36838815 0.01091912 0.038102392
0.43105721 0.010014216 0.038085032
0.36953402 0.014095915 0.037983514
0.42953712 0.013971689 0.03798952
0.37119001 0.017218558 0.038000088
0.37258327 0.019125447 0.038040105
0.42709702 0.018538492 0.038088214
0.42828858 0.016658878 0.038012147
0.37459996 0.021468231 0.037970856
0.37651011 0.02348721 0.037990641
0.42311227 0.023157882 0.037972309
0.42499724 0.021181876 0.037857052
0.3783536 0.025342805 0.038144708
0.38096142 0.027288418 0.037845585
0.41906169 0.026817471 0.037971374
0.42124784 0.024968009 0.037898567
0.3827925 0.028399576 0.037975166
0.38579503 0.029885132 0.037929893
0.38973832 0.031344544 0.037889574
0.410151 0.031418271 0.037938379
0.41423097 0.029813072 0.037801199
0.4170475 0.028310522 0.038065173
0.39392251 0.032470409 0.037936561
0.3980009 0.033080436 0.038196746
0.40211222 0.033019807 0.038168967
0.40609506 0.032495096 0.037917316
0.40807015 0.032071583 0.038538616
0.39083987 -0.032210581 0.041774131
0.39387071 -0.032889362 0.042323384
0.39809817 -0.033229295 0.0419681
0.40219337 -0.033132076 0.041892957
0.40587646 -0.032654334 0.04204534
0.40810752 -0.032157578 0.042002209
0.38260269 -0.028700508 0.041823301
0.38603452 -0.030433198 0.041931249
0.38924402 -0.031707175 0.042089596
0.4104116 -0.031454686 0.041991156
0.41387519 -0.030020824 0.041798498
0.41679743 -0.028466178 0.042538788
0.37821463 -0.025565846 0.042051133
0.38072661 -0.027513683 0.04202709
0.41886169 -0.027160773 0.041759934
0.42154044 -0.025047112 0.041837234
0.37442815 -0.021736776 0.04200875
0.3762489 -0.023755159 0.041921694
0.42328897 -0.023368441 0.042030137
0.42508245 -0.021411514 0.041942518
0.37101808 -0.017357536 0.042033628
0.37250379 -0.019410487 0.041961666
0.42695174 -0.019141149 0.042309929
0.42857856 -0.016831875 0.041670278
0.36914286 -0.014059859 0.042038046
0.43010545 -0.013879407 0.041982133
0.36743566 -0.0095197959 0.04196506
0.36815974 -0.011602571 0.041744627
0.43144226 -0.010079727 0.04216354
0.36652735 -0.0060033393 0.04201908
0.43199745 -0.0077825617 0.040355124
0.43235105 -0.00583645 0.042120881
0.36622521 -0.0019935081 0.041843712
0.43281475 -0.002034656 0.042274673
0.3664791 0.0020926937 0.042112399
0.43279576 0.0019805569 0.042169876
0.36706933 0.0061653508 0.041990735
0.43187293 0.0073624053 0.042168017
0.4323599 0.0051771118 0.042096887
0.36778843 0.0089655733 0.042074125
0.3683866 0.010926171 0.04204043
0.43105164 0.010138519 0.042068075
0.3694911 0.014012158 0.041983608
0.42958587 0.013964393 0.042072516
0.3711108 0.017097015 0.04203951
0.37260723 0.019150507 0.042058144
0.42719641 0.01845254 0.04218863
0.42831835 0.016671719 0.041733764
0.37454796 0.021437859 0.041991118
0.3764255 0.023451965 0.042040553
0.42332807 0.02302435 0.041999273
0.42502517 0.021223374 0.041953631
0.37833288 0.025371511 0.042144842
0.3808181 0.027319193 0.041970272
0.41909423 0.026877673 0.042064857
0.42122954 0.025048058 0.041643023
0.38295123 0.02858855 0.041965671
0.3859145 0.029976202 0.042047527
0.38965681 0.031361133 0.041988902
0.41054836 0.031317614 0.041856557
0.41388839 0.030030558 0.041963935
0.4168683 0.028482635 0.042023372
0.39180994 0.03202451 0.042025574
0.39389458 0.032506652 0.041873246
0.39797923 0.033126697 0.042092536
0.40208942 0.033063926 0.042120837
0.40605313 0.032560945 0.042059466
0.40825176 0.032090399 0.041616973
0.39133835 -0.032348488 0.046359029
0.39357409 -0.032810934 0.045794196
0.39779919 -0.033241194 0.045794912
0.40159729 -0.033150781 0.045978382
0.4057571 -0.03262423 0.04591272
0.40832996 -0.032075144 0.045678899
0.38256904 -0.028631877 0.046059549
0.38573629 -0.030264374 0.046032421
0.38910457 -0.031637318 0.045954656
0.41041279 -0.031441141 0.0455424
0.41400936 -0.029942714 0.045861863
0.41679889 -0.028425446 0.046119429
0.3780739 -0.025426099 0.046007305
0.38072327 -0.027492244 0.04570654
0.41893944 -0.027039556 0.04576632
0.42135429 -0.025181208 0.046268649
0.37441477 -0.021713689 0.046045303
0.37618735 -0.02364251 0.045610581
0.42313069 -0.023451578 0.046549663
0.42495218 -0.021511517 0.045939561
0.37106293 -0.017469727 0.04606593
0.37253258 -0.019415326 0.045930415
0.4270114 -0.019031622 0.045974586
0.42851913 -0.016904604 0.04598802
0.36911532 -0.013971562 0.046026211
0.43007174 -0.01393706 0.04600149
0.36739117 -0.0094085438 0.045975514
0.36811861 -0.011420257 0.045765106
0.43147308 -0.010001981 0.046044808
0.36646608 -0.0059406823 0.0459975
0.4319846 -0.0079089329 0.045397487
0.4323447 -0.0059789256 0.046105992
0.36623082 -0.0018818431 0.045766246
0.4328129 -0.0021461255 0.045969848
0.36649904 0.0021039371 0.04609023
0.43280542 0.0021780552 0.04592577
0.36706951 0.006131155 0.046007782
0.43189114 0.0074413852 0.045789957
0.43232459 0.0055229827 0.046081286
0.36775631 0.00886741 0.04614209
0.36837006 0.010875788 0.046003412
0.43111593 0.010042276 0.046055559
0.3694545 0.01392061 0.04607106
0.42959535 0.014021232 0.045954537
0.37111238 0.017111696 0.045951445
0.37259361 0.019150866 0.046099871
0.42727911 0.018412113 0.046013579
0.42831883 0.016721724 0.045996208
0.37451303 0.021423323 0.045953579
0.37637669 0.023449767 0.04602823
0.42320713 0.02321551 0.046178844
0.42527789 0.021001024 0.045978956
0.3783617 0.025450571 0.046122685
0.38101894 0.027550332 0.046016164
0.4187766 0.027233126 0.046067979
0.42118716 0.025148716 0.045891766
0.38305691 0.028720623 0.046048455
0.38610861 0.030104114 0.046061233
0.39005274 0.031529482 0.04603453
0.41026649 0.031449195 0.045774247
0.41396785 0.030063527 0.046035904
0.41683471 0.028593663 0.045923401
0.39177081 0.032028679 0.04672236
0.39411151 0.032603826 0.045985565
0.39782357 0.033185806 0.046279375
0.40162611 0.033157013 0.046116564
0.40592524 0.032623515 0.045847908
0.40853688 0.032052066 0.045436896
0.39086276 -0.03220376 0.049993001
0.39422554 -0.03289463 0.050203599
0.39806214 -0.0332698 0.049804486
0.40209082 -0.0330882 0.050105933
0.40622875 -0.032491229 0.04988642
0.40849352 -0.032017026 0.04841049
0.3828668 -0.02878233 0.049989119
0.38603237 -0.030350409 0.050264407
0.38893741 -0.031516414 0.049736857
0.4100996 -0.031505659 0.050307695
0.4140228 -0.029911771 0.050306771
0.41666743 -0.028512241 0.050182488
0.37828329 -0.025576362 0.050009683
0.38082692 -0.027514856 0.0501904
0.41859093 -0.027213184 0.050230537
0.42112753 -0.025296403 0.050221059
0.37449211 -0.021785041 0.049927156
0.37641343 -0.023821972 0.050121535
0.42327642 -0.023254871 0.050020467
0.42514485 -0.021231838 0.050078724
0.37092414 -0.017303398 0.050071049
0.37247428 -0.019354017 0.049995318
0.42719737 -0.018735707 0.049991447
0.42865643 -0.016667305 0.050145004
0.36908898 -0.013935565 0.050024666
0.43004236 -0.013972746 0.049944744
0.36749625 -0.0096037351 0.049941614
0.36816838 -0.011474632 0.049894717
0.4314909 -0.0099239713 0.050020259
0.36652064 -0.0060628233 0.050056186
0.43237689 -0.00590039 0.05000329
0.36623818 -0.0020703038 0.049860083
0.43285409 -0.0018636639 0.05002005
0.36649179 0.001878501 0.050095823
0.43285632 0.0019106773 0.050170559
0.36701524 0.0058099907 0.049973384
0.43192798 0.0074650375 0.049865067
0.43236509 0.005522355 0.049991462
0.36770746 0.0087233884 0.050078537
0.3683278 0.010750055 0.050022468
0.4311811 0.0099627897 0.049846523
0.36943135 0.013862526 0.049996924
0.42960349 0.014077216 0.049937274
0.37109959 0.017102551 0.049967464
0.37257716 0.0191573 0.050157707
0.42723274 0.018572589 0.049970072
0.42838025 0.016700367 0.050027944
0.37451172 0.021440571 0.049933176
0.37631738 0.023440067 0.050092269
0.42320907 0.02327781 0.050069846
0.42519018 0.021174574 0.050015587
0.37837917 0.025515039 0.049998142
0.38089186 0.0275723 0.050212163
0.41894153 0.027171863 0.049935099
0.4211385 0.025263766 0.050281513
0.3829155 0.028700776 0.050114345
0.38592219 0.030084755 0.050023489
0.38977 0.031481776 0.049907386
0.41053066 0.031416614 0.04991078
0.41382867 0.030186316 0.050030567
0.41695121 0.028586756 0.049857184
0.3918896 0.032077331 0.048445806
0.39380682 0.032581549 0.050128523
0.39764473 0.033201229 0.049896356
0.40210846 0.03318119 0.050217155
0.40617347 0.032626059 0.049857739
0.40854681 0.032095734 0.050230879
0.39129686 -0.032179922 0.054625254
0.39341992 -0.032724839 0.05396121
0.39796373 -0.033270985 0.053780466
0.40220523 -0.033069365 0.054050636
0.40594783 -0.032493342 0.053806294
0.40805295 -0.032066114 0.05530484
0.38255692 -0.028604722 0.054332841
0.38588169 -0.030247979 0.054179076
0.38937476 -0.03163071 0.053958073
0.410236 -0.031414703 0.054459423
0.41431376 -0.029728543 0.05458124
0.41671407 -0.028439855 0.054090045
0.37811822 -0.025383627 0.05409532
0.38065937 -0.027399732 0.053908292
0.41859013 -0.027162852 0.054348044
0.42119983 -0.025162825 0.053684328
0.37440446 -0.021649839 0.054023199
0.3762961 -0.023619771 0.054182585
0.42327964 -0.023208253 0.053404439
0.42521083 -0.021091279 0.054075535
0.37107712 -0.017367238 0.053879771
0.37255672 -0.01939401 0.054023035
0.42725652 -0.018606709 0.054038819
0.42848346 -0.016898686 0.054075062
0.36923835 -0.014080252 0.054101501
0.43000096 -0.014023657 0.054011934
0.36753365 -0.0095502203 0.053950861
0.36824948 -0.01162564 0.053968459
0.43145922 -0.010053094 0.054036736
0.36655429 -0.0059829438 0.05402267
0.43236601 -0.0060089906 0.053891711
0.36626092 -0.0020632488 0.053992726
0.43285713 -0.0020800941 0.054194756
0.36651921 0.0019721682 0.054024566
0.4328624 0.0021230956 0.054132838
0.36704218 0.0059318491 0.053983856
0.43190062 0.0077789016 0.054125518
0.43234921 0.0057099168 0.053979285
0.36773548 0.0088170981 0.054059312
0.36833844 0.01079558 0.054032542
0.43119112 0.010100643 0.053877752
0.36943758 0.013877037 0.053964652
0.42966652 0.014020969 0.054014813
0.37107682 0.017091596 0.054006394
0.37253597 0.019126303 0.05408873
0.42722857 0.018644484 0.053837407
0.42841029 0.016714238 0.05403389
0.37452075 0.021467563 0.054036725
0.37631819 0.023472264 0.053944644
0.42337415 0.023192801 0.054106902
0.42522764 0.021206973 0.054139197
0.37831801 0.02550582 0.053911064
0.38077992 0.027542356 0.054016992
0.41910905 0.027114037 0.054161482
0.42113093 0.025351807 0.053912997
0.38273028 0.028647173 0.054029766
0.38595766 0.03014224 0.053972442
0.38962224 0.031499442 0.05398111
0.41073725 0.031410709 0.054023501
0.41430113 0.030053819 0.053984065
0.41710007 0.028568305 0.054009318
0.39161012 0.032071259 0.053952161
0.39400986 0.032689907 0.053999949
0.39808172 0.033270303 0.053924907
0.40220603 0.033226725 0.054096855
0.40610445 0.032685164 0.053938087
0.40864652 0.032098785 0.053923368
0.39125618 -0.03219064 0.058192991
0.39407429 -0.032781985 0.058145743
0.39799473 -0.03327167 0.057739627
0.40175369 -0.033108398 0.05801845
0.40570688 -0.032521725 0.05788213
0.40816873 -0.032007784 0.056988139
0.3827593 -0.028745634 0.057812419
0.38589904 -0.030223994 0.058178883
0.38908154 -0.03147259 0.058142848
0.41020703 -0.031383336 0.05794622
0.41410083 -0.029803656 0.05814537
0.4169732 -0.028247755 0.058502149
0.37839124 -0.025551608 0.057970703
0.38086039 -0.027497541 0.058341093
0.41854262 -0.027179042 0.057638772
0.42127547 -0.025064223 0.057704505
0.37435177 -0.021540148 0.057950359
0.37635112 -0.02361119 0.058097914
0.4233624 -0.023064269 0.057680104
0.42518598 -0.021080792 0.058019467
0.37117359 -0.017372085 0.058043987
0.37259802 -0.019354148 0.058154088
0.4271571 -0.018715471 0.057902671
0.42843431 -0.016895887 0.058063101
0.36931503 -0.014024508 0.05800128
0.43003997 -0.013900441 0.058049779
0.36754838 -0.0093560684 0.05797594
0.36824021 -0.011383405 0.0581121
0.43149403 -0.0099056344 0.057900473
0.36660564 -0.0059439298 0.058014914
0.43238488 -0.005965807 0.058015637
0.36631748 -0.0018918627 0.057973076
0.43289053 -0.0019341545 0.058086354
0.36654001 0.0020073184 0.058036838
0.4329015 0.002051536 0.058060762
0.36705199 0.0059641893 0.058023509
0.43192267 0.007895086 0.058124647
0.43237028 0.0058373692 0.057914432
0.36775258 0.0088838059 0.057994187
0.36833063 0.010789015 0.058024436
0.43129736 0.0099421311 0.057936355
0.36945412 0.013911217 0.057991903
0.42972067 0.013992107 0.057954442
0.37108764 0.017132875 0.057995666
0.37253717 0.019148234 0.058051247
0.42726237 0.018663665 0.057896625
0.42843193 0.016727686 0.057928305
0.37462419 0.021604829 0.058006544
0.37646785 0.023641275 0.058079392
0.42343387 0.023204055 0.058139473
0.42536893 0.021130141 0.058040213
0.37828597 0.025497744 0.058001488
0.38068751 0.027505429 0.057972826
0.41889417 0.027300388 0.058225825
0.42146462 0.02510206 0.057755351
0.38265038 0.028637016 0.05795078
0.38572556 0.030093754 0.058078103
0.38930619 0.031460762 0.057978138
0.41077214 0.031445641 0.058078591
0.41412535 0.030188566 0.05793811
0.41720229 0.028568929 0.058045119
0.39169124 0.032206528 0.058641866
0.39392921 0.032735839 0.057907201
0.39805517 0.033323258 0.057822127
0.40187046 0.033293702 0.057841342
0.40584639 0.032802664 0.058249105
0.40865192 0.032197468 0.058205824
0.39115953 -0.032076407 0.062693588
0.39352515 -0.032659981 0.062065192
0.397908 -0.033235036 0.061960034
0.40203428 -0.033052512 0.062099159
0.40616289 -0.03243145 0.061963674
0.38258544 -0.028609529 0.061879288
0.38597202 -0.03022025 0.062235449
0.38959453 -0.031590778 0.061955731
0.40997598 -0.031436268 0.061996453
0.41375008 -0.029967977 0.062105145
0.41652966 -0.028488293 0.061703511
0.378261 -0.025357706 0.061961703
0.38075629 -0.027406329 0.062029019
0.41888145 -0.027017074 0.062025096
0.42130241 -0.025117032 0.062303189
0.37455219 -0.021740844 0.061958645
0.37641546 -0.023608977 0.061938569
0.42314556 -0.023252994 0.062062193
0.42507398 -0.021190742 0.061967392
0.37109524 -0.017193791 0.062027588
0.37254179 -0.019262314 0.062109973
0.4269557 -0.018963309 0.062263843
0.4285391 -0.016736509 0.062007736
0.36934742 -0.013935859 0.06197365
0.42991698 -0.014136826 0.062058028
0.36758837 -0.0091102924 0.061904225
0.36822093 -0.011095854 0.062040053
0.43144661 -0.010030163 0.06187164
0.43200371 -0.0080206897 0.062949017
0.36676997 -0.0059042247 0.061959267
0.43237433 -0.0059667379 0.061940052
0.36637923 -0.0019277108 0.062015817
0.43288481 -0.0021515321 0.062225912
0.36655587 0.002058659 0.06200311
0.43293384 0.0019352771 0.061899364
0.36706078 0.0059606126 0.062021419
0.43194005 0.0079863416 0.0612657
0.43239486 0.005941689 0.061933339
0.36775863 0.0088922838 0.061886813
0.3683432 0.010840279 0.061977126
0.43132478 0.010007293 0.061886415
0.36944646 0.013879206 0.0620008
0.42980948 0.013901195 0.061984051
0.3710658 0.01711731 0.061990499
0.37250042 0.019121302 0.062011905
0.42721519 0.018807013 0.062020611
0.42845446 0.016740888 0.061739571
0.37460905 0.021604611 0.062001567
0.37647435 0.023659248 0.061974227
0.42357352 0.023137849 0.062230274
0.42518273 0.021420982 0.062105011
0.37822405 0.025449244 0.062113129
0.38067073 0.027512277 0.062006965
0.41892722 0.027316872 0.062101893
0.42133895 0.025285464 0.061906606
0.38273269 0.028713033 0.062138461
0.38605022 0.030267406 0.061964374
0.38948143 0.031578876 0.061939638
0.41098377 0.031447168 0.061960343
0.41414586 0.030243566 0.062235255
0.41693908 0.028804507 0.061934788
0.39136603 0.03217186 0.062052224
0.39377463 0.032768235 0.062016763
0.39782178 0.033345632 0.061915938
0.40179577 0.033406928 0.061970025
0.40575412 0.032903749 0.062067077
0.40879425 0.032235403 0.062142454
0.39131266 -0.032155164 0.066085562
0.39398885 -0.032696698 0.066156469
0.39803636 -0.033206698 0.065878592
0.40206861 -0.033026408 0.066278845
0.40606156 -0.032436009 0.065938927
0.3829115 -0.028702026 0.065827556
0.3858614 -0.030129498 0.066218287
0.38927579 -0.031453624 0.066075668
0.41005212 -0.031422008 0.066428334
0.41396901 -0.029845715 0.066336058
0.41650885 -0.028522149 0.065584935
0.37835476 -0.025387246 0.066012882
0.38082683 -0.027371604 0.06614086
0.41855931 -0.027214188 0.06609261
0.42112106 -0.025323408 0.066077642
0.37440494 -0.021545777 0.065947488
0.37643063 -0.023615034 0.066361189
0.4231835 -0.023286002 0.066535726
0.42481655 -0.021478035 0.065823212
0.37123525 -0.017363578 0.066035375
0.37253726 -0.019249802 0.066050403
0.42689249 -0.018999506 0.066217922
0.42848212 -0.016854391 0.065954342
0.36943376 -0.014071164 0.066026732
0.42990866 -0.014173217 0.065886945
0.36767304 -0.0091644712 0.066137522
0.36828002 -0.011183319 0.065846615
0.43147391 -0.010039733 0.065978199
0.36692393 -0.0061468133 0.065988995
0.43233871 -0.005899888 0.066063851
0.36644444 -0.0021189516 0.065987542
0.43287647 -0.001815239 0.065767772
0.36655268 0.0019618575 0.066067845
0.43297446 0.001927546 0.066081144
0.36709663 0.0061233728 0.065988824
0.43245456 0.0059414357 0.066030473
0.36771724 0.0087397611 0.066025667
0.36831513 0.01075686 0.066053949
0.431416 0.0098766936 0.0658269
0.36948419 0.013944499 0.066007033
0.4297947 0.01404354 0.066001371
0.37107643 0.017142931 0.065964498
0.37248415 0.019120984 0.065998375
0.42722383 0.018907625 0.066048421
0.42845789 0.016847016 0.066135064
0.37460452 0.021618446 0.066009
0.37645578 0.023636954 0.065801613
0.42342043 0.023396414 0.066255383
0.42517912 0.02147763 0.06607727
0.37824896 0.025479913 0.06606634
0.38050219 0.027425604 0.065993376
0.41895095 0.027338656 0.066205874
0.4216195 0.02509317 0.065732092
0.38266027 0.028706037 0.06609875
0.38612518 0.030344285 0.065985225
0.38914084 0.031525649 0.066089369
0.41090405 0.031536032 0.06583859
0.41419673 0.030273484 0.066057645
0.41702279 0.028770903 0.065768316
0.39119774 0.03219248 0.065976046
0.39383158 0.032823216 0.066090234
0.39778051 0.033372756 0.066043511
0.40203997 0.033436961 0.065936543
0.40599141 0.032915894 0.065967314
0.40889993 0.032273665 0.065744281
0.39148217 -0.032064192 0.070181713
0.39360753 -0.032630261 0.069873929
0.39795175 -0.033169363 0.069943391
0.40199968 -0.033010378 0.07009355
0.40600154 -0.032436624 0.070110694
0.40807766 -0.032018423 0.069766141
0.38282585 -0.028593177 0.070111021
0.38594991 -0.03013983 0.070266753
0.3895973 -0.031540848 0.069839396
0.41023916 -0.031373456 0.069812007
0.4140667 -0.029780379 0.070591725
0.41668916 -0.028416611 0.070555888
0.37836704 -0.025351524 0.070051357
0.38087246 -0.027333908 0.070173524
0.41885385 -0.027041117 0.069835924
0.42135659 -0.025212487 0.070063069
0.37453863 -0.021654621 0.069987088
0.37641984 -0.023566486 0.070242703
0.42304063 -0.02354938 0.069885164
0.42512968 -0.02118524 0.069895692
0.37117094 -0.017214345 0.069977567
0.37261733 -0.019329028 0.070088692
0.42703763 -0.018893607 0.070065878
0.42853412 -0.016847031 0.069861427
0.36940575 -0.013937964 0.069999017
0.43005189 -0.014075563 0.070068642
0.36769545 -0.0092578446 0.070013829
0.36829394 -0.011166348 0.070068076
0.43154946 -0.01014091 0.070103422
0.43203241 -0.008123111 0.070428304
0.36693162 -0.005985498 0.070047483
0.43237853 -0.0060327202 0.070050493
0.36645392 -0.0020581894 0.069977991
0.432863 -0.002067636 0.070098974
0.36656132 0.0020112481 0.069944404
0.43297431 0.0021778648 0.070123211
0.36708361 0.0059823394 0.070058912
0.43250218 0.0059449412 0.069934249
0.3677533 0.0088622253 0.06995149
0.36831668 0.010763239 0.070018865
0.43141782 0.0099962931 0.069923945
0.36949775 0.013936571 0.07003399
0.42983991 0.014052995 0.070025355
0.37108201 0.017147096 0.069999509
0.37248704 0.019146236 0.070041351
0.42719284 0.019060163 0.069980904
0.42840061 0.017039757 0.069960929
0.37455967 0.021579994 0.070014551
0.37641311 0.023598269 0.069903709
0.42345649 0.02342844 0.070276134
0.42517406 0.021560751 0.069962978
0.37821838 0.025450442 0.070051834
0.38055858 0.027485363 0.069821253
0.41918877 0.027193988 0.070238486
0.4216457 0.025138803 0.069951102
0.38258979 0.028695509 0.070149064
0.38584992 0.030252647 0.070078909
0.38928348 0.031616643 0.070230819
0.41084051 0.031620752 0.070379257
0.41398317 0.030432245 0.069749489
0.41703957 0.028781231 0.069785953
0.39086026 0.03214838 0.069755688
0.393778 0.032828979 0.070125468
0.39753735 0.033351664 0.06991937
0.401963 0.03337067 0.069749482
0.40603969 0.032859769 0.069857739
0.40894026 0.032254335 0.069688596
0.39147869 -0.032176912 0.073327407
0.39401051 -0.032630466 0.073969178
0.39809686 -0.033128869 0.073929086
0.40204728 -0.032987092 0.074087389
0.40573636 -0.032461051 0.074156351
0.38287207 -0.028584925 0.074183397
0.38576254 -0.030014662 0.074039951
0.38939273 -0.031443343 0.07403899
0.41004357 -0.031434249 0.073935814
0.41411707 -0.029758995 0.073942341
0.41692099 -0.028265527 0.074723087
0.37828559 -0.025238795 0.073987849
0.38087729 -0.027282711 0.074109532
0.41854 -0.0272609 0.07407178
0.42126003 -0.025285747 0.07407131
0.37440878 -0.021482687 0.073983192
0.37640026 -0.023531174 0.074300408
0.42313275 -0.023508502 0.073916018
0.42495808 -0.021458136 0.074034534
0.37123421 -0.017269736 0.074012846
0.37249961 -0.019145595 0.073961698
0.42692348 -0.019185549 0.073967986
0.42856613 -0.017004052 0.073831186
0.36948308 -0.014037639 0.073978201
0.43026677 -0.013811134 0.074035645
0.36765653 -0.0091188559 0.073933601
0.36833221 -0.011177745 0.07410226
0.43157834 -0.010224831 0.074081644
0.43204674 -0.0083769849 0.073818833
0.36692852 -0.0059931558 0.074058034
0.43246004 -0.0060049384 0.073954068
0.36646491 -0.0019144884 0.073908813
0.43293968 -0.0020292385 0.074016564
0.36656371 0.0019131965 0.073917501
0.43300506 0.0019395598 0.073839612
0.36711192 0.0060588703 0.074030623
0.43251407 0.006066958 0.07411281
0.36775351 0.008847856 0.073929325
0.36836216 0.010879855 0.073931091
0.43138286 0.010214869 0.07397981
0.36954719 0.014013759 0.074007906
0.42983159 0.014169893 0.074001163
0.37109271 0.017135993 0.074007422
0.37246838 0.019119347 0.07401713
0.42729351 0.019012121 0.073938727
0.42848811 0.017005688 0.073980339
0.37454948 0.021580493 0.074017599
0.37637708 0.023560483 0.073957786
0.42352208 0.023430267 0.074104883
0.42529678 0.021512723 0.073980972
0.37838018 0.025598038 0.073984668
0.38068426 0.027624646 0.073836826
0.41931596 0.027131526 0.073949568
0.42149258 0.025324196 0.074066609
0.38244736 0.028650975 0.074099123
0.38585117 0.030260023 0.074128702
0.38913363 0.031554755 0.074020296
0.41074181 0.031669907 0.074132502
0.41395378 0.030493304 0.073960647
0.41703188 0.028824912 0.073955134
0.39127183 0.0322599 0.074371226
0.39407212 0.032903958 0.074012369
0.39803603 0.03339088 0.073960833
0.40184516 0.033406205 0.073898695
0.40582857 0.032882165 0.073952019
0.40879285 0.032280099 0.074017406
0.39173323 -0.032123782 0.078039072
0.39367875 -0.032579456 0.078002475
0.39786252 -0.033070162 0.078159198
0.40195352 -0.032962695 0.077915192
0.4062573 -0.032349534 0.078085773
0.38291299 -0.028565032 0.07809294
0.38604501 -0.030093255 0.078117624
0.38956875 -0.031497836 0.07789623
0.41008186 -0.031427331 0.077911705
0.41417289 -0.029746253 0.078031875
0.4167293 -0.028353626 0.077947989
0.37852138 -0.025388019 0.07804022
0.38100976 -0.027323755 0.077942677
0.4187606 -0.027128574 0.078200333
0.42137069 -0.025162475 0.07782013
0.37460446 -0.021655992 0.078036778
0.37650478 -0.02360191 0.077867188
0.42324388 -0.023345934 0.077778362
0.42500111 -0.021442972 0.077810176
0.37125137 -0.017253332 0.078063101
0.37265456 -0.019315321 0.078102283
0.4271034 -0.019122735 0.078077547
0.4286828 -0.016964249 0.078015745
0.3695018 -0.014055843 0.0780292
0.43020621 -0.014004857 0.077940203
0.36765724 -0.0091560362 0.078102753
0.36828965 -0.011072274 0.077841125
0.43156037 -0.010293215 0.077963307
0.43207029 -0.0083012357 0.077971138
0.36690307 -0.0059946543 0.077944674
0.4325352 -0.0059991558 0.078043945
0.36647332 -0.0019933092 0.078101709
0.43300447 -0.0019192899 0.077782057
0.36658981 0.0020513707 0.077975623
0.4330571 0.001842369 0.077891536
0.36711761 0.0059922296 0.077953652
0.43256891 0.0059714839 0.078087285
0.36777043 0.0088353148 0.078153297
0.3683818 0.010842498 0.077993944
0.43135366 0.010442618 0.078115657
0.43206564 0.0082956348 0.077924863
0.3695955 0.014034854 0.077989079
0.42986742 0.014162564 0.078011498
0.37114385 0.017182579 0.077978477
0.37248564 0.019125689 0.077974379
0.42734998 0.018998645 0.07801275
0.42854127 0.017017448 0.078216039
0.3745265 0.021562371 0.077976003
0.37649798 0.023679132 0.078146286
0.42322338 0.023763957 0.077864438
0.42543203 0.021433465 0.078050561
0.37843335 0.025630478 0.077955022
0.38065493 0.027612541 0.078056604
0.41897812 0.027447874 0.077990204
0.42138553 0.025479211 0.077721134
0.38242429 0.028652243 0.078019544
0.38570946 0.030201478 0.077984653
0.38919207 0.031562015 0.077965446
0.41100529 0.031638958 0.078099422
0.41424662 0.030404437 0.077990808
0.4171997 0.028738882 0.078167148
0.39139146 0.032300454 0.077916607
0.394137 0.03293949 0.07810659
0.39807969 0.033424918 0.077896692
0.40210399 0.033430211 0.078029253
0.40599325 0.032876313 0.07805115
0.40887439 0.032262772 0.078196965
0.39169994 -0.032124866 0.08194752
0.39386335 -0.032532848 0.081859402
0.39792091 -0.033016928 0.082182162
0.40197825 -0.032935437 0.081899032
0.40579554 -0.032409467 0.081898548
0.383048 -0.028590359 0.081998371
0.38587925 -0.029973524 0.081827439
0.3895224 -0.031403836 0.082196303
0.40979502 -0.031502951 0.082042351
0.41391963 -0.029873062 0.082233138
0.41663143 -0.028415367 0.081849016
0.37839356 -0.02523344 0.082036756
0.38101256 -0.027265197 0.082119964
0.41869879 -0.027160792 0.082181826
0.42134985 -0.025157366 0.081741124
0.37451261 -0.021526489 0.082043678
0.37648335 -0.023538224 0.082305007
0.42337382 -0.023200609 0.08172781
0.42514554 -0.021370592 0.081626609
0.37119839 -0.017125314 0.081971347
0.37253824 -0.019129269 0.082086384
0.42721707 -0.019050052 0.082176648
0.42860839 -0.017061243 0.082098939
0.36943659 -0.01387496 0.082011424
0.4302046 -0.013972979 0.081958883
0.36763239 -0.0090766838 0.081948206
0.3682878 -0.011087311 0.081998214
0.43152019 -0.010474949 0.081902549
0.43208981 -0.0083995052 0.082125016
0.36687788 -0.0059762867 0.082081839
0.43254274 -0.0060740379 0.081988804
0.3664816 -0.0019573872 0.081983849
0.43307874 -0.0019966466 0.0820264
0.36661273 0.002092496 0.082121871
0.43309903 0.0020429757 0.082144156
0.36714187 0.0059844502 0.081978336
0.43259785 0.0060505066 0.082074374
0.36776879 0.0087242024 0.081893563
0.36839065 0.010763325 0.082105555
0.4314495 0.010319703 0.082164735
0.43207547 0.008366067 0.081781521
0.36963838 0.014025453 0.08200606
0.42995998 0.01399249 0.082039729
0.37116832 0.017143497 0.082030922
0.37249258 0.019105766 0.082011364
0.42725945 0.019153478 0.082117453
0.42854774 0.017028507 0.082215384
0.37449318 0.021533344 0.081992269
0.37655148 0.023717593 0.081943221
0.42337549 0.023689471 0.081964925
0.42527601 0.021679075 0.081856325
0.37855527 0.025725497 0.082031719
0.38068148 0.027622525 0.082375057
0.41918314 0.027325653 0.082133375
0.42152324 0.025421359 0.081837922
0.38250393 0.028716015 0.081879027
0.38578162 0.030237781 0.081998914
0.38901016 0.0314941 0.081747666
0.41089255 0.031727958 0.081789255
0.41403693 0.030534336 0.082055092
0.41723222 0.028756745 0.082262442
0.39126408 0.032259282 0.082145318
0.39375377 0.03292321 0.08198601
0.39787984 0.03345947 0.081888214
0.40200466 0.033486754 0.081990011
0.40636578 0.032851651 0.082140543
0.4089897 0.032245856 0.082088657
0.393776 -0.032475431 0.086089432
0.39797384 -0.032965399 0.086192735
0.40193009 -0.032898832 0.08614146
0.40599537 -0.032353312 0.085987881
0.3829869 -0.028507324 0.08587072
0.38598284 -0.02995359 0.0859797
0.38969573 -0.031413224 0.085917883
0.40977079 -0.031491354 0.085977212
0.41378966 -0.029938044 0.086006686
0.41656515 -0.028466208 0.086407505
0.37844345 -0.025232768 0.086166829
0.38101524 -0.027215352 0.085872583
0.41859856 -0.027175812 0.086196676
0.42143065 -0.025086487 0.085818119
0.37452561 -0.02149849 0.086018011
0.37641141 -0.023441592 0.085890725
0.42344269 -0.023156222 0.085684098
0.42538166 -0.021201858 0.08578077
0.37125668 -0.017172426 0.086131401
0.37260306 -0.01916603 0.086010635
0.42725107 -0.018960724 0.086305
0.42868096 -0.016841952 0.086022548
0.36954042 -0.014050615 0.085959643
0.43011835 -0.014086477 0.085875869
0.36764145 -0.0090655014 0.085834667
0.36831278 -0.011148842 0.086031973
0.43145633 -0.010549774 0.085916601
0.43209636 -0.0084902393 0.085808955
0.36689663 -0.0060200375 0.086075142
0.43259731 -0.0059729279 0.08610367
0.3665005 -0.0020032856 0.085920237
0.43312567 -0.0019516691 0.08619234
0.36662951 0.00201405 0.085966624
0.43314412 0.0019704772 0.086207747
0.36718413 0.0060339067 0.086029425
0.43263182 0.0060007493 0.086038217
0.36778101 0.0086392658 0.08581131
0.36841762 0.010744144 0.08612749
0.43145549 0.010413533 0.086136989
0.43209422 0.0084866239 0.085838616
0.36968198 0.014031366 0.085976116
0.42995128 0.014040166 0.085946016
0.37123302 0.017165344 0.086019881
0.37250388 0.019092625 0.085985303
0.42735973 0.019052975 0.086093724
0.42852286 0.017039027 0.086030252
0.37447006 0.021524267 0.086034648
0.37648886 0.02365103 0.085923791
0.42352402 0.023615899 0.085967384
0.42534992 0.021665107 0.08588431
0.37851536 0.025653822 0.086008444
0.38079083 0.02765769 0.086000986
0.41932127 0.027249657 0.086011268
0.42153937 0.025454221 0.086023055
0.38281003 0.028860783 0.085965171
0.38611108 0.030399518 0.085854113
0.38932073 0.031631872 0.085899644
0.41100469 0.031742275 0.086146988
0.41412356 0.03052905 0.086059988
0.41735303 0.028692495 0.086092472
0.39118192 0.032261912 0.086064152
0.39372537 0.032948367 0.086087555
0.39777133 0.033534076 0.085864581
0.40199384 0.033557616 0.085887358
0.40583196 0.033027977 0.085796162
0.40905192 0.032288641 0.086424895
0.39168975 -0.032087371 0.089403458
0.39405203 -0.032428496 0.089896187
0.39802516 -0.032909747 0.090114422
0.40213209 -0.032855324 0.089952372
0.40609106 -0.032311957 0.090088278
0.38304555 -0.028454347 0.090003714
0.38592491 -0.029869549 0.089950152
0.3899608 -0.031427439 0.090071626
0.39200392 -0.031970497 0.090924144
0.40780076 -0.031981997 0.090740465
0.41026983 -0.031326201 0.089660406
0.41428682 -0.029682985 0.089896604
0.41678688 -0.028297208 0.090445928
0.37854478 -0.025266986 0.090028316
0.38117176 -0.027270978 0.090007201
0.4188261 -0.026966214 0.089959502
0.42152765 -0.025025455 0.090009987
0.37458813 -0.021518627 0.090047248
0.3765949 -0.023571255 0.090177402
0.42349431 -0.023166133 0.089818135
0.42527968 -0.021362383 0.08993791
0.37128514 -0.01718658 0.089991622
0.37264225 -0.019193875 0.090005606
0.42738402 -0.018667137 0.08996588
0.42850432 -0.016909603 0.090029195
0.36954531 -0.014006613 0.089989215
0.43002108 -0.014118681 0.09003032
0.36764821 -0.0091147376 0.089960694
0.36829033 -0.011038337 0.09003678
0.43154868 -0.010350445 0.089997843
0.43211666 -0.0084425462 0.089771338
0.36694026 -0.0059810034 0.089999631
0.43263018 -0.0060207909 0.090066396
0.36655259 -0.0020399962 0.089830816
0.43312642 -0.0020546119 0.090074643
0.36665791 0.0020833225 0.089905448
0.4331741 0.0019568715 0.090312146
0.36723334 0.0060916236 0.090097323
0.43266293 0.0059829964 0.08991535
0.36782706 0.0086564058 0.08985129
0.36845541 0.010753035 0.090142533
0.43145758 0.010507564 0.09011972
0.43211409 0.0085196989 0.089982376
0.36974522 0.014095958 0.089949489
0.43000153 0.01400015 0.089891121
0.37128332 0.01717218 0.090010837
0.37255111 0.019118564 0.089999676
0.42733797 0.019172441 0.090053037
0.42848632 0.017183091 0.089957535
0.37445056 0.02150777 0.090014562
0.37641373 0.023622798 0.089989573
0.42356655 0.023636239 0.089680061
0.42537472 0.021716196 0.089955278
0.37856016 0.025639545 0.090050384
0.38079694 0.027613569 0.090019166
0.41912198 0.027425606 0.090209953
0.42162913 0.025425063 0.090023346
0.38288546 0.028876353 0.090049237
0.38611239 0.030442011 0.089901216
0.38918906 0.031630557 0.09016899
0.41122159 0.031721074 0.090013683
0.41412565 0.030572675 0.090185992
0.41710153 0.028880199 0.089698501
0.39088094 0.032189976 0.089872159
0.39386567 0.032992229 0.089953303
0.39780131 0.033594623 0.08996468
0.4018876 0.033625975 0.090007581
0.40586963 0.033094268 0.089834087
0.4090665 0.032356407 0.090302855
0.39397639 -0.032388799 0.094131649
0.3978337 -0.032830752 0.09405642
0.40185085 -0.032847352 0.094038948
0.40555674 -0.032378748 0.094023302
0.38327858 -0.028526423 0.09410686
0.38598844 -0.029836619 0.09406843
0.38971582 -0.031287007 0.093837045
0.39229548 -0.031970512 0.094088234
0.40794855 -0.031937052 0.09299092
0.40986714 -0.031420227 0.094077699
0.41411427 -0.029742492 0.093981892
0.4169158 -0.028177643 0.094681188
0.37849432 -0.025172399 0.094056115
0.38105926 -0.027136665 0.093957976
0.41857275 -0.027095055 0.09373834
0.42135093 -0.02517361 0.09405873
0.374596 -0.021469053 0.093966067
0.37650841 -0.023452349 0.094075516
0.42356667 -0.023211408 0.094056688
0.42541051 -0.021228814 0.094143406
0.3712872 -0.017123872 0.093881778
0.37262526 -0.019098502 0.094130404
0.42715961 -0.018911762 0.09404292
0.42850089 -0.016858768 0.09401004
0.36956722 -0.014009465 0.093957327
0.43006584 -0.014096366 0.093929239
0.36764497 -0.0089027099 0.093984216
0.36830524 -0.010923982 0.094209664
0.43157974 -0.010412159 0.094082192
0.43211946 -0.0084597813 0.093943357
0.36703241 -0.0060092728 0.094055369
0.43265635 -0.0059573161 0.094027795
0.36661592 -0.002076685 0.093891375
0.43315479 -0.0020169865 0.094075918
0.36667246 0.001919289 0.093929686
0.43318501 0.002086632 0.094127521
0.36725321 0.0059674643 0.094076544
0.43268698 0.0060266191 0.093972519
0.36783063 0.0085349362 0.093825497
0.36844453 0.010567057 0.094132043
0.43145221 0.010618962 0.094078325
0.43211913 0.0085582603 0.093871154
0.36979479 0.014089246 0.093981974
0.43005994 0.013972938 0.09398976
0.37136891 0.017185643 0.094000228
0.37260666 0.019134112 0.094088309
0.42746919 0.019020358 0.093659893
0.4285523 0.017103722 0.093865462
0.37447762 0.02152507 0.093952939
0.3763909 0.023623018 0.094112456
0.42360812 0.023669735 0.094080105
0.42546421 0.021673912 0.09393467
0.37844974 0.025530262 0.094050735
0.38076699 0.027521539 0.094052546
0.41911855 0.027449051 0.094098397
0.42175242 0.025364915 0.093888476
0.38273197 0.028783413 0.094197929
0.38597608 0.030436404 0.094033279
0.38880467 0.03155753 0.094087183
0.41131675 0.031735983 0.094076209
0.41427854 0.030455478 0.094018847
0.41725367 0.028779242 0.094027966
0.3907029 0.03217259 0.094021909
0.39383924 0.03300561 0.094010137
0.39794314 0.033636753 0.093885213
0.40198568 0.033661667 0.094064452
0.4060638 0.033109486 0.093979269
0.40924531 0.03237538 0.09425991
0.39408532 -0.032266293 0.097942472
0.39808196 -0.032742962 0.098079823
0.40199867 -0.032786462 0.097845249
0.40580228 -0.032269455 0.097971439
0.38338563 -0.028405383 0.09817671
0.38608158 -0.029685179 0.098077223
0.38985738 -0.03115591 0.097997569
0.39242133 -0.031898998 0.098706752
0.40757412 -0.031937409 0.098500282
0.40990278 -0.031358864 0.098209523
0.41397247 -0.029798668 0.097937122
0.41627613 -0.02856867 0.098404206
0.37858564 -0.025184356 0.097969905
0.38130897 -0.027202589 0.098122559
0.41830516 -0.027226042 0.098032072
0.4214763 -0.025033811 0.098130457
0.37465411 -0.021416206 0.098102428
0.37662601 -0.02343837 0.097922593
0.42323491 -0.023525625 0.098782718
0.4252342 -0.021411197 0.098038442
0.37123904 -0.016955512 0.098002315
0.37263539 -0.018960552 0.098002702
0.42722118 -0.018866168 0.098053053
0.42855841 -0.016920228 0.098245338
0.36962396 -0.013987413 0.097974733
0.43014029 -0.014106112 0.097972818
0.3677741 -0.0088671613 0.09779837
0.36834973 -0.010812471 0.09808296
0.431564 -0.010577138 0.098074287
0.4321306 -0.0085702417 0.098249748
0.36717334 -0.0059985691 0.098142371
0.43263018 -0.0060189073 0.09804491
0.36666119 -0.0019448842 0.09798076
0.43316805 -0.0020917959 0.097928718
0.36673591 0.0019350424 0.098061159
0.43323338 0.0019407892 0.098041393
0.36732054 0.0059581981 0.097986557
0.4327473 0.0059628901 0.097981662
0.36787072 0.0084747802 0.097863019
0.36849391 0.010393877 0.098111413
0.43145826 0.010713242 0.098050833
0.43213621 0.0086416015 0.09799552
0.36986637 0.013982695 0.098002218
0.43008295 0.013981013 0.097985387
0.37136057 0.017014602 0.097842164
0.37264732 0.019083966 0.098127566
0.42738122 0.01915345 0.098117307
0.42859045 0.017043753 0.098177001
0.37464571 0.021643555 0.097953208
0.37639305 0.023593897 0.098002665
0.42366579 0.023605289 0.098151214
0.42547539 0.021636438 0.098043762
0.37841317 0.025524845 0.097982854
0.38077462 0.027507408 0.097991914
0.41896075 0.027340526 0.098160602
0.42152587 0.025469646 0.098102048
0.3826324 0.028739801 0.098126553
0.38579971 0.030404724 0.098105066
0.3890498 0.031685431 0.09795247
0.41152439 0.03168378 0.09807831
0.41425005 0.030362457 0.098148115
0.41708052 0.028668506 0.097789265
0.3915334 0.032422774 0.098142609
0.3940239 0.033066425 0.097973183
0.39816928 0.033663172 0.098140143
0.40205228 0.033665523 0.098181494
0.40612763 0.033119429 0.098068446
0.40950498 0.032323543 0.097912811
0.39498135 -0.032187298 0.10183658
0.39768961 -0.032580022 0.10208539
0.4018504 -0.032739077 0.1020131
0.40530372 -0.032258105 0.10194155
0.38328245 -0.028170357 0.1022846
0.38613212 -0.029452028 0.10210831
0.38999119 -0.030913802 0.1019666
0.3927871 -0.031749669 0.10211761
0.40756455 -0.031826347 0.1020087
0.41021141 -0.031172195 0.10222846
0.41441688 -0.029504638 0.10206486
0.41665557 -0.028186856 0.10190636
0.37855747 -0.025049953 0.10204113
0.38129207 -0.027054531 0.10197516
0.41878417 -0.026768522 0.10201082
0.42123598 -0.024963567 0.10198823
0.37483755 -0.021402348 0.10201132
0.37673932 -0.023360439 0.10222241
0.42318353 -0.023274235 0.10213545
0.42516974 -0.021370066 0.1019905
0.37138417 -0.016917389 0.10189618
0.37282562 -0.018941678 0.10215939
0.42712334 -0.018875163 0.10243516
0.42856091 -0.016789427 0.10205583
0.36984283 -0.013959005 0.10206109
0.43014115 -0.014122405 0.10187208
0.36788324 -0.0085267136 0.10150392
0.3684555 -0.010348975 0.10225603
0.4315933 -0.010436711 0.10202418
0.4321495 -0.0084934663 0.10205708
0.36739898 -0.0060345554 0.1020526
0.43262717 -0.006025387 0.10203046
0.36679733 -0.002002819 0.10211894
0.43318263 -0.0020333712 0.10192934
0.36683252 0.001920354 0.10205722
0.43324909 0.0022255823 0.10196928
0.36748171 0.0060867071 0.10200734
0.43275258 0.0060961717 0.10197215
0.36793986 0.0082226545 0.10136173
0.36856553 0.010165666 0.102018
0.43149903 0.010645092 0.10190485
0.4321644 0.0086585935 0.1021727
