# .PCD v0.7 - Point Cloud Data file format
VERSION 0.7
FIELDS x y z
SIZE 4 4 4
TYPE F F F
COUNT 1 1 1
WIDTH 192
HEIGHT 1
VIEWPOINT 0 0 0 1 0 0 0
POINTS 192
DATA ascii
0.38629666 -0.012995004 0.0031025372
0.41365546 -0.013019212 0.0034091144
0.3862941 -0.0099176653 0.0031348041
0.41365549 -0.010004437 0.0034114588
0.38629562 -0.0059838686 0.003101592
0.41365549 -0.0061675087 0.003414447
0.38629386 -0.0020442025 0.0031184489
0.41365549 -0.0020565912 0.0034176584
0.38629547 0.0018784746 0.003085545
0.41365549 0.0020542482 0.0034208631
0.38629636 0.0059734918 0.0030642324
0.41365549 0.0058909589 0.0034238514
0.38629371 0.010130024 0.0030933407
0.41365552 0.010001644 0.0034271097
0.38629416 0.012990386 0.0030794395
0.3887513 0.014059104 0.0030265774
0.41318768 0.013641489 0.0035070151
0.38630041 -0.012939104 0.0058462159
0.41365531 -0.012941604 0.0059833294
0.38629943 -0.0098922253 0.0060022864
0.41365528 -0.0099615725 0.0061732349
0.3862963 -0.0058882725 0.0061059538
0.41365528 -0.0060092579 0.006116603
0.38629636 -0.0020446968 0.0060982164
0.41365531 -0.0020552531 0.0060599712
0.38629466 0.0018709173 0.0061219539
0.41365531 0.0020154135 0.0061825006
0.38629696 0.0059863352 0.006037869
0.41365531 0.005969272 0.0061258734
0.38629466 0.010122103 0.0061324616
0.41365549 0.010052715 0.0061294846
0.38629487 0.013011938 0.0060888277
0.39091316 0.01405824 0.0054728608
0.39270386 0.014057524 0.0074991025
0.40285802 0.014108908 0.007410855
0.40618378 0.014109447 0.0061290199
0.41002175 0.014110069 0.0046497635
0.41365576 0.013047195 0.0061324998
0.38629711 -0.013046247 0.0098594865
0.41365519 -0.013087681 0.0096612647
0.3862972 -0.010044484 0.0096711703
0.41365516 -0.0099789659 0.0096049942
0.38630059 -0.0059473477 0.0099555738
0.41365522 -0.0059415163 0.0097253872
0.38630125 -0.0019282595 0.0098862611
0.41365522 -0.0020233358 0.0096697379
0.38630015 0.0019549869 0.0098829018
0.41365525 0.002024451 0.0096728364
0.38630095 0.0058392622 0.0098712081
0.41365528 0.0060721724 0.0096762562
0.3863005 0.0099758497 0.0098647382
0.41365561 0.0099930642 0.0096214963
0.38630027 0.013026433 0.0098599512
0.39133528 0.014106669 0.011809712
0.39422458 0.014083718 0.010282459
0.39765868 0.014097715 0.0097409971
0.40081164 0.014108577 0.0081995763
0.41365582 0.012935633 0.0098088076
0.38629922 -0.013033087 0.013699737
0.41365501 -0.013020236 0.014008844
0.38629836 -0.010058093 0.013684768
0.41365498 -0.0099978214 0.014086535
0.3862972 -0.0060591954 0.013612304
0.41365498 -0.0059877778 0.013936239
0.38629878 -0.0019628219 0.013728027
0.41365507 -0.0019912261 0.014092589
0.38629746 0.0020871686 0.013849396
0.41365513 0.0019274032 0.014020927
0.38629937 0.005914731 0.013939815
0.41365537 0.0059312941 0.014024832
0.38629857 0.010024046 0.013921961
0.41365579 0.0099350922 0.014028801
0.3863706 0.013176384 0.013859213
0.38928297 0.014106162 0.012581038
0.39841682 0.014055242 0.013963651
0.41365591 0.012871154 0.014031705
0.38629851 -0.012928078 0.017842716
0.41365477 -0.01295536 0.018270213
0.38630065 -0.0099011762 0.017856803
0.4136548 -0.010050491 0.018272379
0.38629904 -0.0060442057 0.017832665
0.4136548 -0.0060893721 0.018275328
0.38630113 -0.0019620873 0.017849792
0.41365486 -0.001990004 0.018222559
0.38629797 0.0020778032 0.017984655
0.41365525 0.0019584692 0.018338732
0.38629931 0.0059863632 0.018082133
0.41365555 0.0060576801 0.018286571
0.38629872 0.010071334 0.018062845
0.41365582 0.010018498 0.018290447
0.386298 0.013097879 0.01804827
0.40202141 0.014053801 0.018042527
0.41365609 0.012923041 0.018293288
0.38629773 -0.01305692 0.021963777
0.4136546 -0.01309636 0.021729426
0.38630033 -0.010013701 0.021982059
0.41365466 -0.010076217 0.021613359
0.3862994 -0.0059445454 0.021925092
0.41365471 -0.0058869482 0.021616666
0.38629931 -0.002114187 0.021957221
0.41365498 -0.0019595518 0.021620391
0.38629958 0.0019895101 0.021931475
0.41365531 0.0019677551 0.021624193
0.38630027 0.0060502286 0.021930957
0.41365564 0.0060332255 0.021572916
0.38629851 0.0099351415 0.021875782
0.41365594 0.0099456469 0.021687141
0.38630083 0.012919767 0.021983186
0.40566978 0.014052342 0.022170819
0.41365618 0.012963727 0.021634839
0.3863022 -0.013120921 0.025784222
0.41365442 -0.012975127 0.025558345
0.38629991 -0.010047262 0.025718514
0.41365442 -0.010042438 0.025707696
0.38630298 -0.0059828525 0.026065225
0.41365483 -0.0060734386 0.025782192
0.38630089 -0.0020367033 0.02601256
0.41365513 -0.0020118172 0.025715454
0.38630334 0.0020131231 0.026033083
0.41365531 0.0020518966 0.025648918
0.38630077 0.0060445047 0.025996517
0.41365567 0.0059275967 0.025796665
0.38630071 0.0099351853 0.025988685
0.41365603 0.009904989 0.025726847
0.38630316 0.012910108 0.026011935
0.4077906 0.014051495 0.024570663
0.40949973 0.014050812 0.026504628
0.41365626 0.013013585 0.02572982
0.38686901 -0.012957821 0.029157117
0.38997382 -0.012993154 0.029441193
0.39403695 -0.013067411 0.029443139
0.39787564 -0.013085409 0.029442197
0.40206161 -0.012963785 0.029445574
0.4060367 -0.012960549 0.029439963
0.41009256 -0.013064406 0.029442325
0.4129484 -0.013058743 0.029378559
0.38689429 -0.010034882 0.029183969
0.39011779 -0.010074344 0.029444786
0.39399558 -0.010070898 0.029449482
0.39792818 -0.010062536 0.029445214
0.40200058 -0.0099956132 0.029451152
0.40609911 -0.010077232 0.029443327
0.41000205 -0.010089295 0.029450018
0.41294196 -0.010096599 0.029389266
0.38693359 -0.0060299067 0.029281719
0.39006197 -0.0059841787 0.029448425
0.39397475 -0.0059927963 0.029451536
0.39788678 -0.0060226363 0.029446013
0.4020676 -0.0059970063 0.02945251
0.40615129 -0.0060389121 0.029446553
0.41005975 -0.0060066185 0.02945075
0.41294146 -0.0059896037 0.029392898
0.38694286 -0.0019767967 0.029292697
0.39007694 -0.0019967174 0.029449534
0.39399886 -0.0019785701 0.029450366
0.39790231 -0.0020209507 0.029450055
0.40203518 -0.0019742625 0.02945541
0.40616944 -0.0019434417 0.029449115
0.41009068 -0.0018870581 0.029452583
0.41293514 -0.0018808418 0.029393639
0.38692847 0.0019709805 0.029289367
0.39005294 0.0019422274 0.029449005
0.39397591 0.0019828847 0.029454276
0.39789763 0.0020396195 0.029450553
0.40202788 0.0020436463 0.029455779
0.40613294 0.0020772654 0.029449161
0.41008618 0.0020147855 0.029451564
0.41293457 0.0020067201 0.02939656
0.38694552 0.0059894575 0.029298397
0.39006376 0.0059836721 0.029454399
0.39395195 0.0059364503 0.029456511
0.39789009 0.0059173936 0.029452762
0.40203273 0.0059531387 0.029456796
0.40615192 0.0059903054 0.029451732
0.41008198 0.005903522 0.029456228
0.41292858 0.0058887126 0.029397761
0.38693407 0.010025375 0.02929059
0.39006218 0.01001762 0.029455109
0.39399755 0.010024526 0.029456297
0.39788616 0.0099629303 0.029453406
0.40201247 0.0099833487 0.029460078
0.4061451 0.010011311 0.029455032
0.41007435 0.010004284 0.02945777
0.41292751 0.0099992054 0.029401302
0.38692805 0.013011104 0.0292951
0.39004782 0.013003581 0.029455634
0.39397267 0.013059421 0.029462771
0.39788356 0.013062813 0.029459802
0.40202349 0.013062348 0.029464522
0.40615067 0.013063634 0.029459242
0.41013643 0.013114357 0.029427189
0.41291934 0.013107367 0.029401165
