# .PCD v0.7 - Point Cloud Data file format
VERSION 0.7
FIELDS x y z
SIZE 4 4 4
TYPE F F F
COUNT 1 1 1
WIDTH 284
HEIGHT 1
VIEWPOINT 0 0 0 1 0 0 0
POINTS 284
DATA ascii
-0.041767001 -0.042167999 0.63142002
0.036200002 -0.045566998 0.63146901
0.024365 -0.047924001 0.63138998
0.019955 -0.046208002 0.631414
0.013871 -0.042511001 0.63127601
0.045754001 -0.037684001 0.63149101
0.0088569997 -0.036357 0.63111901
0.0075170002 -0.033071999 0.63129902
0.049219001 -0.027377 0.63140303
0.0066470001 -0.028108001 0.63130897
0.048767999 -0.021792 0.63148201
0.047534999 -0.018169999 0.63190401
0.0083389999 -0.017157 0.63132697
0.0069380002 -0.021659 0.63152999
0.043016002 -0.01069 0.63150501
0.012129 -0.01192 0.63146597
0.035705 -0.0057629999 0.63133103
0.028762 -0.0042460002 0.63148302
0.021602999 -0.0055180001 0.631396
0.03571 -0.049323998 0.63884199
0.028027 -0.050335001 0.63846701
0.020068999 -0.049444001 0.63882798
0.015789 -0.048129 0.63798499
0.0482 -0.040350001 0.63935798
0.043706998 -0.043692 0.63821799
0.036532 -0.044294 0.63785601
0.028136 -0.043648001 0.637806
0.019492 -0.044036001 0.63751101
0.012052 -0.043641999 0.637896
0.0078119999 -0.040906001 0.63861299
0.050106 -0.035241999 0.63819999
0.044757999 -0.035698999 0.63669997
0.036277 -0.034940999 0.63772202
0.028244 -0.034830999 0.63769299
0.019967999 -0.035073999 0.63776201
0.011659 -0.036123998 0.63689101
0.0059949998 -0.035852 0.63799
0.050613001 -0.027691999 0.63704002
0.043639999 -0.027748 0.63768202
0.035888001 -0.027944 0.63761902
0.028075 -0.028170001 0.63764501
0.020056 -0.027626 0.63762802
0.01227 -0.027859 0.63771099
0.0052820002 -0.027639 0.63690102
0.050308999 -0.020285999 0.63757402
0.044096 -0.019786 0.637465
0.035767999 -0.019753 0.63768798
0.028163999 -0.01977 0.63763303
0.019957 -0.020036001 0.63766998
0.011839 -0.019687001 0.63759297
0.0059540002 -0.020204 0.63768899
0.049245 -0.014183 0.63875002
0.043926999 -0.011931 0.63709301
0.035978001 -0.011973 0.63773602
0.028069999 -0.011899 0.63769299
0.019832 -0.011938 0.63776499
0.012384 -0.01244 0.63740802
0.007065 -0.014109 0.63864702
0.041818 -0.006364 0.638533
0.036099002 -0.0054830001 0.63727498
0.028015999 -0.00496 0.63732398
0.020319 -0.0056110001 0.63748199
0.014253 -0.0066069998 0.63855702
0.040890001 -0.048154999 0.64448398
0.035746999 -0.049582999 0.644036
0.02799 -0.050981 0.64392102
0.02011 -0.049772002 0.644059
0.015681 -0.048268002 0.643659
0.048478998 -0.040479001 0.644198
0.044236999 -0.044509999 0.64399302
0.039381001 -0.047568001 0.64390802
0.016144 -0.047540002 0.64346898
0.011534 -0.044698998 0.64406198
0.0074649998 -0.040796001 0.64392698
0.050423 -0.036127001 0.644023
0.047738999 -0.039216001 0.64328802
0.0080080004 -0.038812 0.64413297
0.005262 -0.03616 0.64401501
0.052441001 -0.027811 0.64399898
0.0036840001 -0.028065 0.64417899
0.051529001 -0.019841 0.64401102
0.0084539996 -0.016163001 0.645495
0.0047089998 -0.0199 0.64451599
0.049272001 -0.013815 0.644171
0.045568999 -0.010621 0.64446598
0.017262001 -0.0090629999 0.64616799
0.010592 -0.011621 0.644858
0.0064340001 -0.013728 0.64435601
0.042281002 -0.0062250001 0.64435703
0.036635999 -0.0036859999 0.64453697
0.028085999 -0.001764 0.64431298
0.020026 -0.003273 0.64443898
0.013253 -0.0060609998 0.64426702
0.040596001 -0.048296001 0.65259898
0.035983998 -0.049690001 0.65215898
0.028075 -0.051123999 0.65195298
0.020165 -0.049958002 0.65208298
0.01554 -0.048280999 0.65251797
0.048427001 -0.040596001 0.65196699
0.044314999 -0.044565 0.65193999
0.039501999 -0.04761 0.65219301
0.016062999 -0.047718 0.64984697
0.011529 -0.044847999 0.65204501
0.0074700001 -0.040995002 0.652116
0.050577 -0.035975002 0.65213799
0.047371998 -0.039283 0.65032899
0.0051819999 -0.035813998 0.65211999
0.052133001 -0.028070999 0.65227503
0.0040139998 -0.028085001 0.65196103
0.051637001 -0.019959999 0.65212899
0.0046080002 -0.019685 0.65205097
0.049348999 -0.01389 0.65215302
0.045488998 -0.010639 0.65168798
0.032524999 -0.0080500003 0.65517402
0.027156999 -0.0081000002 0.65226001
0.018579001 -0.0097639998 0.65256101
0.011446 -0.012932 0.65220302
0.0067770001 -0.014161 0.65232098
0.042369001 -0.006203 0.65204799
0.036153998 -0.004342 0.651878
0.028077999 -0.0046350001 0.652619
0.020874999 -0.004195 0.65191501
0.013589 -0.0057239998 0.65210098
0.040405001 -0.048339002 0.66105098
0.035891999 -0.049867999 0.66005599
0.02809 -0.051298998 0.66016698
0.020052999 -0.050071999 0.66002798
0.015482 -0.048487 0.66041201
0.048487 -0.040654998 0.65983701
0.044401001 -0.044702001 0.660052
0.039409 -0.047683999 0.66082197
0.016503001 -0.046723001 0.66258198
0.011518 -0.04496 0.660151
0.0073540001 -0.040927999 0.659962
0.050687 -0.035863999 0.66012597
0.047502 -0.039398 0.66113001
0.0083240001 -0.039675999 0.659473
0.0051970002 -0.036067002 0.66013002
0.052124999 -0.028147999 0.66012597
0.0041220002 -0.027936 0.66024601
0.051697001 -0.019856 0.66011602
0.0044689998 -0.019862 0.66012102
0.049421001 -0.013839 0.66000801
0.045175001 -0.010983 0.66069901
0.017944001 -0.0092839999 0.659078
0.01218 -0.011422 0.66087002
0.0065879999 -0.014084 0.66024899
0.042385001 -0.006122 0.66038299
0.035659999 -0.0045460002 0.66044801
0.028092001 -0.004462 0.660496
0.020509999 -0.0050789998 0.66093099
0.013387 -0.0060410001 0.66009998
0.040359002 -0.048367001 0.66773498
0.036013 -0.049956001 0.66816998
0.027937001 -0.051486999 0.66815698
0.020062 -0.050218001 0.66805702
0.015203 -0.048471998 0.668365
0.048457 -0.040672999 0.66783398
0.044457 -0.044780001 0.66815603
0.039422002 -0.047945999 0.66716301
0.016412999 -0.047515001 0.66875499
0.011287 -0.044794999 0.66805202
0.007181 -0.041053999 0.668199
0.050769001 -0.035907 0.668028
0.047759999 -0.039372999 0.66905499
0.0083520003 -0.039857 0.66631198
0.005103 -0.036091 0.66825199
0.052367002 -0.028032999 0.66780502
0.0034020001 -0.027944 0.66778898
0.051902 -0.019873001 0.66794699
0.004127 -0.01998 0.66791201
0.049442001 -0.013581 0.66799599
0.045968 -0.010046 0.66731799
0.010117 -0.0096460003 0.66722
0.0065819998 -0.013596 0.66800398
0.042529002 -0.0061599999 0.66792899
0.036060002 -0.003114 0.66786999
0.028054999 -0.001661 0.667714
0.019724 -0.0033740001 0.66764098
0.013657 -0.0063669998 0.66791201
0.040483002 -0.048331 0.675282
0.036072001 -0.050085001 0.67586797
0.027966 -0.051543001 0.67600697
0.019947 -0.050246999 0.67584902
0.015104 -0.048587002 0.676054
0.048510998 -0.040764999 0.67631203
0.044585999 -0.044787999 0.676018
0.039801002 -0.047814 0.67649603
0.016983001 -0.047626 0.67722797
0.011232 -0.044771001 0.67609602
0.007154 -0.041230999 0.67631298
0.050859999 -0.035998002 0.675901
0.047719002 -0.039604999 0.67205602
0.0080650002 -0.039795998 0.67575699
0.005014 -0.036125999 0.67622298
0.052797999 -0.027925 0.675888
0.003113 -0.028035 0.67598897
0.052069999 -0.019974001 0.676009
0.0039570001 -0.019889001 0.676094
0.049563002 -0.013563 0.67602003
0.046417002 -0.0097310003 0.67590803
0.0094750002 -0.0097549995 0.67600697
0.0064309998 -0.013609 0.67597502
0.042574 -0.006027 0.675978
0.035985 -0.0028649999 0.67609799
0.027992001 -0.001539 0.675852
0.019943001 -0.002812 0.67604297
0.013474 -0.0060299998 0.67609
0.026815999 3.3e-05 0.67730403
0.040437002 -0.048301 0.68247497
0.035999 -0.049849 0.68321401
0.027652999 -0.051077001 0.68344998
0.019936001 -0.049835 0.683303
0.014954 -0.048675001 0.68236798
0.048539001 -0.040693998 0.68341899
0.044718999 -0.044656001 0.683532
0.038768999 -0.047338001 0.68688101
0.016551999 -0.047605 0.68443203
0.011279 -0.044525001 0.68349099
0.007131 -0.041103002 0.68324101
0.05094 -0.035918999 0.68355501
0.0049760002 -0.035911001 0.68371701
0.052809 -0.028019 0.68366301
0.0030970001 -0.027977001 0.68374902
0.052026998 -0.019827001 0.68375802
0.003851 -0.020024 0.68388999
0.049536999 -0.013569 0.683824
0.04642 -0.0097789997 0.68393397
0.0095690005 -0.0096389996 0.68397999
0.0064790002 -0.013515 0.68375802
0.042652 -0.0060149999 0.68395901
0.036127999 -0.002848 0.68390799
0.028122 -0.001554 0.68397999
0.020081 -0.0027139999 0.68404198
0.01341 -0.0060620001 0.684026
0.027420999 8.0999998e-05 0.68424201
0.033314001 -0.056276999 0.69191599
0.027793 -0.056395002 0.69196302
0.022604 -0.056212999 0.691939
0.048285998 -0.048579998 0.69209599
0.043154001 -0.050269 0.69292301
0.035992 -0.052395999 0.69273502
0.027976001 -0.053344 0.69278198
0.019912999 -0.052356999 0.69264603
0.012745 -0.050381001 0.69288599
0.007609 -0.048512999 0.69219202
0.050469 -0.043228 0.69292301
0.045281 -0.045717001 0.69244802
0.039351001 -0.047633 0.69117898
0.016385 -0.047708001 0.69029403
0.01076 -0.045386001 0.69215298
0.0053050001 -0.043288998 0.69284898
0 -0.040518999 0.69274801
0.056485001 -0.033877999 0.69260401
0.052985001 -0.036327999 0.69270402
0.047917999 -0.039933 0.68845302
0.00318 -0.036373001 0.69253099
0.00056800002 -0.034448002 0.692586
0.057108 -0.027788 0.69284803
0.053989999 -0.028115001 0.69242102
0.0021319999 -0.028046001 0.69225299
0.001092 -0.027925 0.69293398
0.05689 -0.020846 0.69279099
0.053413998 -0.019664999 0.69243002
0.0025859999 -0.019681999 0.69235998
0.00083199999 -0.020804999 0.692972
0.056150001 -0.015659999 0.69253898
0.051447 -0.012364 0.69274199
0.046618 -0.0095070004 0.691257
0.0092770001 -0.0094790002 0.69136
0.004654 -0.012384 0.69278598
9.0000003e-06 -0.014482 0.69286299
0.0495 -0.006385 0.692976
0.043781999 -0.0043190001 0.69275099
0.036448002 -0.002137 0.69197601
0.028092001 -0.0011399999 0.69156098
0.019606 -0.001947 0.69215697
0.012202 -0.0043759998 0.692846
0.0066749998 -0.0064539998 0.69322699
0.041141 0.00053800002 0.69286501
0.035418 0.001605 0.69329202
0.027984001 0.0019729999 0.69334698
0.020637 0.001605 0.69334602
0.014863 0.00060799997 0.69284099
