# .PCD v0.7 - Point Cloud Data file format
VERSION 0.7
FIELDS x y z
SIZE 4 4 4
TYPE F F F
COUNT 1 1 1
WIDTH 1280
HEIGHT 1
VIEWPOINT 0 0 0 1 0 0 0
POINTS 1280
DATA ascii
0.47546765 -0.040165514 0.002126955
0.47832048 -0.041320335 0.0031223667
0.48284364 -0.042734783 0.0031652565
0.46787691 -0.036077127 0.0020190931
0.4700335 -0.037406191 0.0031991471
0.47370458 -0.039382596 0.0031227057
0.46322203 -0.032624062 0.0030393621
0.46596354 -0.034726802 0.0029889101
0.45920104 -0.028888825 0.0029977877
0.46110031 -0.030727433 0.0032259002
0.45556965 -0.024689248 0.0029507328
0.45737275 -0.026836539 0.0029037423
0.45360711 -0.021900538 0.0029668673
0.45106429 -0.017671902 0.0030487028
0.45214462 -0.019624257 0.0030417673
0.44928572 -0.01402196 0.0029339308
0.44751808 -0.0094640628 0.003013538
0.44819766 -0.011403469 0.0030171592
0.44658884 -0.0061849742 0.0030460309
0.44569519 -0.0018539993 0.0029238013
0.44519952 0.0020105229 0.0030402406
0.44500557 0.006030987 0.0030923446
0.44515821 0.010009601 0.003113237
0.4455981 0.013955682 0.0029848136
0.44641864 0.018194141 0.0030663065
0.44744417 0.021876967 0.0030492833
0.44810349 0.023839299 0.0030332541
0.44907162 0.026178449 0.0029867152
0.45090067 0.030040579 0.003066706
0.4530904 0.033796892 0.0028400666
0.45523822 0.036888238 0.0030966515
0.45673341 0.038784672 0.0029348084
0.45878798 0.041084059 0.0030668105
0.46087334 0.043180224 0.0028988908
0.46268433 0.044800334 0.0028087455
0.46533945 0.046938531 0.0031575849
0.46734229 0.048382025 0.0027590406
0.46954018 0.049777772 0.0029728687
0.47241539 0.051378235 0.0029609092
0.47483087 0.052561942 0.0029957455
0.47817686 0.053924214 0.0029488977
0.48235613 0.055254105 0.0027588783
0.48788199 0.056435395 0.0038644548
0.48890817 0.056618921 0.0025370612
0.47524825 -0.040069889 0.0048676692
0.47761717 -0.041059058 0.0059935637
0.48197171 -0.042485248 0.0062754075
0.48870414 -0.043922365 0.006667499
0.46981627 -0.037271872 0.0061982945
0.47344396 -0.039250176 0.0063791173
0.46320263 -0.032605417 0.0060134809
0.46584529 -0.034640681 0.0059229368
0.45919305 -0.028866192 0.0062406086
0.46128613 -0.030889433 0.0061136424
0.45549098 -0.024576919 0.0060751033
0.45722535 -0.026676256 0.0059169731
0.45363444 -0.021941034 0.0059455871
0.45097768 -0.017509066 0.0059576915
0.45212895 -0.01958698 0.0059785801
0.44924146 -0.01391835 0.006020878
0.44748521 -0.009341958 0.0059731593
0.44816306 -0.011312763 0.0061571435
0.44656035 -0.0061029508 0.0059416504
0.44573799 -0.0021009203 0.0060755266
0.44519866 0.0020212256 0.0059910212
0.44500723 0.0059491829 0.0060600205
0.44515818 0.010012685 0.0060302853
0.44561145 0.014024929 0.0060809413
0.44637039 0.017982412 0.0059525692
0.44740427 0.021732749 0.0059765917
0.4480952 0.02383103 0.0061362586
0.44901994 0.026054041 0.0059694503
0.45083129 0.029910531 0.0060160109
0.45315605 0.033897419 0.0059689758
0.45511696 0.03671303 0.0061220773
0.45677891 0.038842112 0.0059564859
0.45879841 0.041102473 0.0060495851
0.46081746 0.043137845 0.0059984601
0.46274135 0.044863354 0.0057663107
0.46527508 0.046898909 0.0061108642
0.46720815 0.048268348 0.005980433
0.46970293 0.049868938 0.0059864433
0.47247839 0.051414844 0.0060138083
0.47455722 0.052445509 0.0058126687
0.47813982 0.053909257 0.0058542839
0.4825584 0.055312566 0.0060095661
0.48694116 0.056275595 0.0062147207
0.48822039 0.056510665 0.0060450365
0.47559589 -0.04022225 0.010422118
0.47767767 -0.041074932 0.0098739583
0.48180547 -0.042436671 0.010306514
0.48532972 -0.043339133 0.0097922003
0.46789074 -0.036093187 0.010920529
0.46979749 -0.037263054 0.010149878
0.47306761 -0.039075885 0.010014551
0.46332511 -0.032713637 0.010075762
0.46581528 -0.034618836 0.0099259606
0.45920452 -0.028886089 0.0099583063
0.4613274 -0.030929046 0.0099519398
0.45550159 -0.024578042 0.010048735
0.45701677 -0.026441149 0.0099279266
0.45376039 -0.022129565 0.0099905459
0.45109329 -0.017715665 0.01000763
0.45222268 -0.019755764 0.009926904
0.44924662 -0.013921556 0.01010111
0.4475514 -0.0095385732 0.0099683832
0.44818571 -0.011371871 0.010105745
0.44653419 -0.0060014771 0.0099996217
0.44571331 -0.0019482361 0.010056374
0.44519773 0.0020479902 0.0098238876
0.44501016 0.0059186784 0.0098395394
0.44515693 0.0099556381 0.0097859213
0.44559926 0.013949431 0.0099769467
0.44637764 0.018021723 0.009999373
0.44742584 0.021803908 0.010089859
0.44808859 0.023797859 0.0098133655
0.44901595 0.026041539 0.0099994224
0.45080471 0.029856564 0.0099909613
0.45320079 0.033947464 0.010079653
0.45535588 0.037053172 0.010141079
0.45692557 0.038995717 0.0097752931
0.45892006 0.041239437 0.0099872062
0.46084735 0.043163016 0.010132266
0.4626877 0.044804465 0.009578173
0.46509686 0.046766561 0.010115287
0.46712562 0.048217058 0.0098684113
0.46991116 0.049976546 0.01007936
0.47313014 0.051774371 0.0099459402
0.47489199 0.052586108 0.0101689
0.47783953 0.053807579 0.0097354138
0.48184201 0.055103064 0.0099302456
0.48509029 0.055960461 0.010857589
0.48618421 0.056152474 0.0093032019
0.48985854 -0.044119213 0.01586023
0.47552583 -0.040188774 0.013619663
0.47807565 -0.041228682 0.013805326
0.48297969 -0.042773493 0.013962002
0.47000495 -0.037377544 0.014116361
0.47372055 -0.039392099 0.01430191
0.463119 -0.032527644 0.013890305
0.46588179 -0.034664806 0.013956061
0.45915172 -0.028829504 0.013914438
0.46110743 -0.030730873 0.013770031
0.4556407 -0.024779985 0.014134805
0.45729643 -0.026753277 0.013992941
0.453711 -0.022051554 0.013941064
0.45112774 -0.017775623 0.014024288
0.45219597 -0.01971329 0.014183677
0.44932479 -0.014110384 0.01402199
0.44751143 -0.0093991244 0.014036824
0.44827169 -0.011571073 0.013904051
0.44651553 -0.0059266076 0.014014717
0.44573301 -0.0020572387 0.013902009
0.44520822 0.0019421168 0.01418691
0.44501454 0.0059562996 0.014011649
0.44516385 0.010079722 0.014160295
0.44561577 0.014038458 0.013973312
0.44640276 0.018113436 0.014009166
0.44742328 0.021789091 0.013991634
0.44807518 0.023773605 0.01402819
0.44900721 0.026017068 0.01406167
0.45087585 0.029982708 0.014051074
0.45323139 0.034001492 0.013899175
0.45532757 0.037006337 0.014007841
0.45695844 0.039045963 0.01400247
0.45885456 0.041160919 0.014091009
0.46092707 0.043228026 0.014104468
0.46315587 0.045229673 0.014003311
0.46553385 0.047088511 0.01409222
0.46753788 0.04849539 0.014006102
0.47021013 0.050157458 0.013938107
0.47292024 0.051672306 0.014025923
0.47481781 0.052556809 0.014137253
0.47759408 0.05370412 0.013960714
0.48148873 0.055002328 0.014161335
0.48428184 0.055799793 0.013469385
0.48560011 0.056064043 0.01368293
0.49083897 -0.04405421 0.019005362
0.49491385 -0.044278182 0.019019524
0.4975884 -0.04409771 0.019018799
0.50085282 -0.044044979 0.019034456
0.47553211 -0.040082909 0.018217254
0.47824124 -0.040759686 0.018699065
0.48211792 -0.041326798 0.018923867
0.48612684 -0.041712556 0.019025536
0.48990643 -0.041931029 0.019008128
0.49395454 -0.042015214 0.019025743
0.49799746 -0.041939266 0.01901919
0.50199425 -0.041954536 0.019025525
0.50587046 -0.041598268 0.019022755
0.5098865 -0.041175764 0.019018458
0.5136131 -0.04054049 0.019023737
0.51615131 -0.040032137 0.019038118
0.46777973 -0.036008455 0.016885998
0.47032976 -0.03699838 0.018626936
0.47403532 -0.037768587 0.018927014
0.47801119 -0.038058385 0.019027464
0.48194692 -0.038018495 0.019021092
0.48601729 -0.038015779 0.019027745
0.48990059 -0.038001448 0.019020844
0.49395558 -0.03798433 0.019025601
0.49795571 -0.037958678 0.01901977
0.50204003 -0.037961248 0.019024419
0.50593966 -0.037976969 0.019024715
0.51000601 -0.037988026 0.019018386
0.51403028 -0.038017109 0.019022401
0.51773143 -0.037684649 0.019023782
0.52135539 -0.036789201 0.019017804
0.46334136 -0.032552615 0.017829914
0.4663147 -0.033592172 0.018779257
0.46996462 -0.034064807 0.019029194
0.47389635 -0.033895139 0.019024123
0.47800371 -0.03396225 0.019028941
0.4819434 -0.033994049 0.019021548
0.48603013 -0.033970337 0.019027706
0.48992571 -0.034065749 0.019021254
0.49396238 -0.033907857 0.019026896
0.49796009 -0.034019686 0.019020794
0.50203341 -0.03392956 0.019025715
0.50592339 -0.034042947 0.019025782
0.51001227 -0.033985343 0.019018823
0.51401824 -0.034045376 0.01902573
0.51798689 -0.034014363 0.019024098
0.52196479 -0.033983506 0.019023696
0.52553111 -0.03337682 0.019016286
0.52840823 -0.032253288 0.019037567
0.45931503 -0.028774591 0.01812955
0.46208191 -0.029889517 0.018769059
0.46600628 -0.029886808 0.019024998
0.46997705 -0.030030452 0.019027773
0.47389555 -0.029957786 0.019023675
0.47799301 -0.029967643 0.019028759
0.48193228 -0.030060414 0.019021116
0.48610434 -0.029924897 0.01902351
0.48996407 -0.030091908 0.019024782
0.49398157 -0.029939037 0.019027565
0.4979673 -0.029977385 0.01901947
0.50203907 -0.030024365 0.0190266
0.50592238 -0.029979505 0.019024549
0.51002806 -0.030082075 0.019020241
0.51402348 -0.030025102 0.01902337
0.51798677 -0.030019058 0.019026106
0.52196711 -0.029981878 0.01902234
0.52598697 -0.029999508 0.019019172
0.52968103 -0.029687602 0.019024674
0.53220558 -0.028518811 0.019036507
0.45556164 -0.024549114 0.017828198
0.45812574 -0.025895404 0.018770553
0.4619756 -0.02598346 0.019024251
0.46601713 -0.025913971 0.019026082
0.46995616 -0.026044661 0.019028973
0.47388858 -0.026017966 0.01902513
0.47798869 -0.025953809 0.019029073
0.48194721 -0.026099773 0.019022642
0.48615995 -0.025970157 0.019023618
0.49006811 -0.025967259 0.019027464
0.49397174 -0.026035711 0.019027736
0.4979645 -0.025954213 0.019020807
0.50201923 -0.026076458 0.019027811
0.50592053 -0.026044624 0.019025652
0.50999212 -0.026033966 0.019020664
0.51402539 -0.026091602 0.019024614
0.517995 -0.025966244 0.019024957
0.52196991 -0.026029618 0.0190257
0.52598172 -0.026046589 0.019017607
0.53000969 -0.026017472 0.01902486
0.53351676 -0.025667977 0.019024694
0.5360049 -0.024385285 0.019038944
0.45424643 -0.021615105 0.018506089
0.45794731 -0.022060368 0.019025642
0.46196052 -0.022001727 0.019023802
0.46603194 -0.021953514 0.019024616
0.46996316 -0.022082685 0.019029617
0.47388795 -0.022080587 0.019024614
0.47800946 -0.021933997 0.019028895
0.48191115 -0.022247149 0.019021155
0.48615673 -0.022219036 0.019019365
0.49008262 -0.022184018 0.019024702
0.49399543 -0.022256862 0.019027101
0.49795681 -0.02214022 0.019018926
0.50202459 -0.022148518 0.019025387
0.50595772 -0.02217708 0.019026158
0.51001513 -0.021998668 0.019020071
0.51399648 -0.021897949 0.019027375
0.51799136 -0.021935944 0.019025395
0.52195805 -0.021925976 0.019024044
0.5259909 -0.021923766 0.019020161
0.53001857 -0.021998404 0.01902299
0.53400499 -0.021941455 0.019025551
0.53723389 -0.021288816 0.019028965
0.45123732 -0.017418012 0.01817677
0.45384365 -0.018025411 0.018987991
0.45790839 -0.018083584 0.019026352
0.4619697 -0.018036347 0.019026062
0.46601135 -0.017985277 0.01902611
0.46996391 -0.018105337 0.019030813
0.47375545 -0.018309575 0.0190212
0.47810245 -0.018092625 0.019011803
0.48219159 -0.018042931 0.019012799
0.48618621 -0.018021576 0.019007005
0.49017888 -0.018069567 0.019011041
0.49390328 -0.018145552 0.019013857
0.4979485 -0.018088717 0.019002773
0.50199419 -0.018171893 0.019012248
0.50585687 -0.018327104 0.019010155
0.50995237 -0.018230805 0.018988667
0.51402724 -0.018168796 0.018986203
0.51807994 -0.018337537 0.019002222
0.52198583 -0.018613437 0.019007672
0.52595502 -0.018523145 0.018997811
0.53009033 -0.018648367 0.019009963
0.53408957 -0.018556975 0.019012311
0.53799576 -0.018499296 0.019010779
0.54035401 -0.01730554 0.019034423
0.4502424 -0.013864402 0.018590445
0.45401728 -0.014083388 0.019024933
0.45802668 -0.014038862 0.019033724
0.46198484 -0.013952952 0.01902586
0.46596611 -0.013888786 0.019026617
0.46967188 -0.01419169 0.019023456
0.47378099 -0.013851833 0.019009857
0.47823256 -0.013838845 0.019009033
0.48218548 -0.013914096 0.019013191
0.48617956 -0.013895053 0.019007422
0.49018079 -0.013924471 0.019016419
0.4938229 -0.014374852 0.019012528
0.49775201 -0.014707223 0.018993346
0.50179172 -0.014907161 0.018987076
0.50586832 -0.014881318 0.018979533
0.50988907 -0.014713538 0.01894764
0.51397425 -0.014909498 0.018949661
0.51792938 -0.015173113 0.018949205
0.52166522 -0.015241321 0.018944703
0.52602744 -0.015300363 0.018936958
0.53010571 -0.015655331 0.01897346
0.44759202 -0.0092716068 0.01800907
0.44993255 -0.010120742 0.018903375
0.45400143 -0.010105818 0.019028805
0.45799816 -0.010034659 0.019034013
0.46193847 -0.0099160727 0.019024445
0.46569613 -0.0099901231 0.019020153
0.46985614 -0.0099228732 0.019012377
0.47377074 -0.0099206455 0.019004993
0.47823498 -0.0099210925 0.019005632
0.48222095 -0.0099632805 0.019015659
0.48565841 -0.010566404 0.019110894
0.48892033 -0.011473435 0.019286904
0.44696239 -0.0057670963 0.018410759
0.45009041 -0.0060042324 0.019028833
0.45400745 -0.0060181376 0.01902822
0.45800775 -0.0059705297 0.019033078
0.46188569 -0.0059648054 0.019026831
0.46591294 -0.0060080066 0.019013053
0.46985018 -0.006020295 0.019016249
0.47374612 -0.0059539406 0.019009082
0.47822037 -0.0059987549 0.019009521
0.48156175 -0.0068107028 0.019214883
0.44655776 -0.0020067778 0.018514896
0.45008597 -0.0020593489 0.019026702
0.45398369 -0.0020263775 0.01902697
0.45800349 -0.001986762 0.01903476
0.46165547 -0.0020194708 0.01902296
0.46595839 -0.0020902904 0.01900892
0.47000328 -0.0020647326 0.019011408
0.47387487 -0.0020045512 0.019005109
0.47777334 -0.0022367407 0.019140529
0.44628394 0.0019382713 0.018668782
0.45005822 0.0019373337 0.019029323
0.45398471 0.0019545578 0.01903015
0.45799938 0.00196558 0.01903606
0.46157554 0.0019353102 0.019022075
0.46595502 0.0018908062 0.019008808
0.47000673 0.0020320017 0.019020008
0.47387883 0.0019961745 0.019010939
0.47691378 0.0017933901 0.019160673
0.44614348 0.0059887045 0.018521046
0.45005754 0.0059548337 0.019029794
0.45398447 0.0059841643 0.019029146
0.45800015 0.0060133869 0.019034017
0.4615967 0.0060384097 0.019019227
0.46593735 0.0059690103 0.019011483
0.46999303 0.0060701803 0.019015972
0.47386074 0.0060075228 0.019005947
0.47661981 0.0060131052 0.01917408
0.44626045 0.010011325 0.018675806
0.4500649 0.009989637 0.019028472
0.45397392 0.010028857 0.019029323
0.45799291 0.010048259 0.019037068
0.46174133 0.010106781 0.019027211
0.46593332 0.0099570109 0.019013561
0.46997452 0.0099445069 0.019019248
0.47384939 0.0099071721 0.019010331
0.47679654 0.01004846 0.019178405
0.44650573 0.014025586 0.018575357
0.4500567 0.014090656 0.01903159
0.45397353 0.014093298 0.019031446
0.45798996 0.014101421 0.019037461
0.46193984 0.014104952 0.019030094
0.46573558 0.014171609 0.019019144
0.47012985 0.014055731 0.019022183
0.47399443 0.013979579 0.019007184
0.47752115 0.014152548 0.019125402
0.44687146 0.017916517 0.018393999
0.45005575 0.018090306 0.019027919
0.4539676 0.018043896 0.019030994
0.45798698 0.018055694 0.019037208
0.46193677 0.018056052 0.019029599
0.46583295 0.018145651 0.019028047
0.47006556 0.018005308 0.019021356
0.47400853 0.017907744 0.019002635
0.47819746 0.017889803 0.019038862
0.48117429 0.018821027 0.019299705
0.4475024 0.021572452 0.018031778
0.44994959 0.022093812 0.018957414
0.45397285 0.021965697 0.019028785
0.45801514 0.02204597 0.019036369
0.46192572 0.02209172 0.019028498
0.46596986 0.022084761 0.019029509
0.46995357 0.02219798 0.01903428
0.47389802 0.022073699 0.019012246
0.47814402 0.021902306 0.019012729
0.48212156 0.021845195 0.019081473
0.48550609 0.022922629 0.019112255
0.45003369 0.025780883 0.018633429
0.45395982 0.025895227 0.019031826
0.45794871 0.025964988 0.019037491
0.46195933 0.026100874 0.019029915
0.46597293 0.026141323 0.019031193
0.47007963 0.026115725 0.019035462
0.47391778 0.026125945 0.019025959
0.47801903 0.026284192 0.019023528
0.48198676 0.026274765 0.019023137
0.48612535 0.026118552 0.019013166
0.49007106 0.026276251 0.019072192
0.49404538 0.026861234 0.0190238
0.49797907 0.026949383 0.019022392
0.50189126 0.026970962 0.019020639
0.50602072 0.0269557 0.01901295
0.51004219 0.026992725 0.019027226
0.51406616 0.027081428 0.019025369
0.51808101 0.026996175 0.019029614
0.52192789 0.026908739 0.019031199
0.52598566 0.026781073 0.019026721
0.5300042 0.026705738 0.019032415
0.53402764 0.026595753 0.019033581
0.53801781 0.026469829 0.01903357
0.54114538 0.026340246 0.019035148
0.45106775 0.029636737 0.018296044
0.45398197 0.029844545 0.019032197
0.45797709 0.029836601 0.019039407
0.4619166 0.029940547 0.019031394
0.46596476 0.03007243 0.019032648
0.47007787 0.030064179 0.019037805
0.47399521 0.03005608 0.019029351
0.4780243 0.02999069 0.019030293
0.48202011 0.029975267 0.019035639
0.48611626 0.029966092 0.01903012
0.49002168 0.02995299 0.019034596
0.49402049 0.029945346 0.019028747
0.49801937 0.029943334 0.019033488
0.50197268 0.029973626 0.019034879
0.50597924 0.030019058 0.019029399
0.51004928 0.02997986 0.019032788
0.51396847 0.029971305 0.019031556
0.5179463 0.029946476 0.019031951
0.5219816 0.029972009 0.019025985
0.52598703 0.029913342 0.019028706
0.52996463 0.029899018 0.019032108
0.53397495 0.02993365 0.01903232
0.53800046 0.029957134 0.019031018
0.54064608 0.028968966 0.019038357
0.45416462 0.033752266 0.018580165
0.45797399 0.033920795 0.019037902
0.4618811 0.033912491 0.019030996
0.46596104 0.034110669 0.0190331
0.47007456 0.034106903 0.019038381
0.4739821 0.03410136 0.019030837
0.47803208 0.034052964 0.019030767
0.48201674 0.034001339 0.01903617
0.48611268 0.033994991 0.019030586
0.49001816 0.033979025 0.019035107
0.49401668 0.034111798 0.019029247
0.49798894 0.034187451 0.019035142
0.50198454 0.034135219 0.019035408
0.50600588 0.034081761 0.019026695
0.51005697 0.033943243 0.019032553
0.51396829 0.033873152 0.019031214
0.51794589 0.033891186 0.019031657
0.52201241 0.033936478 0.019026684
0.52601063 0.033988021 0.019033013
0.52997357 0.033983748 0.019029442
0.53398222 0.033961516 0.019029772
0.53739226 0.033602528 0.019031737
0.45539692 0.036876585 0.018009383
0.45799929 0.037964009 0.018838026
0.46192378 0.037921682 0.019029977
0.46597478 0.038037386 0.019032326
0.47006565 0.038048241 0.019038009
0.47397128 0.03804224 0.019030321
0.47802293 0.038001359 0.019031113
0.48201075 0.037929408 0.01903588
0.48611203 0.03793665 0.019029936
0.49001542 0.038108304 0.019034842
0.49399847 0.038131226 0.019029658
0.49800161 0.038071118 0.019034926
0.50197548 0.038027585 0.019033922
0.50599003 0.03801674 0.019026147
0.51004231 0.037969723 0.01903387
0.51395661 0.037987981 0.019034926
0.51794469 0.037949879 0.019035174
0.52200639 0.037915211 0.019024758
0.52601224 0.037891679 0.019031882
0.52995366 0.037901171 0.019031819
0.53371251 0.037683848 0.019033903
0.53652549 0.036185354 0.019048151
0.45910925 0.041008733 0.018303566
0.46191043 0.041968156 0.018819729
0.46594715 0.042031806 0.019032309
0.47007325 0.042049453 0.019039446
0.47396713 0.042001527 0.019031929
0.47802296 0.041941926 0.019032717
0.48200986 0.041877471 0.01903718
0.48610488 0.042044889 0.019031465
0.49001193 0.042088863 0.019036142
0.49400696 0.04202893 0.019031223
0.49799338 0.041973744 0.019035045
0.50197035 0.041984998 0.019035298
0.50596845 0.042105332 0.019028651
0.51003176 0.042118944 0.019036716
0.51395786 0.042052727 0.019033123
0.51792407 0.041971345 0.019033404
0.52198631 0.041990966 0.019026313
0.52599698 0.042050984 0.019034838
0.52980489 0.041834682 0.019033158
0.53248173 0.040810574 0.019036194
0.46313962 0.044863049 0.018288771
0.46613494 0.045972239 0.018853018
0.47005907 0.046057601 0.019039111
0.47397667 0.045989823 0.0190315
0.47803223 0.045952365 0.019031404
0.48199546 0.045921586 0.019036904
0.48610425 0.046028901 0.019030789
0.49000856 0.046016268 0.019035814
0.49401826 0.045923445 0.019030614
0.49799159 0.045951568 0.019034797
0.50196862 0.046097729 0.019034987
0.50599432 0.046039879 0.019029213
0.51004249 0.045988347 0.019034099
0.51395786 0.046026636 0.01903289
0.5179463 0.046113022 0.019034324
0.52201766 0.045995869 0.019026905
0.52573395 0.045613836 0.019034399
0.5285176 0.044513758 0.019048234
0.46763384 0.048483789 0.018151546
0.47031307 0.049304422 0.018717745
0.47396085 0.049986608 0.018954286
0.47801495 0.049959574 0.019033704
0.48201534 0.050023917 0.019038193
0.48608583 0.0500031 0.019032476
0.48999703 0.049924299 0.019038266
0.49400225 0.049900092 0.019031225
0.49798635 0.050054163 0.01903611
0.50195795 0.050010595 0.01903753
0.5059759 0.049935315 0.019028462
0.51003182 0.050038241 0.019035501
0.51395059 0.050077442 0.019036664
0.51786906 0.04994642 0.019035188
0.52156484 0.048994623 0.01902831
0.52427691 0.048142806 0.019050902
0.47496122 0.052410699 0.018531103
0.47812384 0.053055037 0.018854661
0.48209825 0.053784896 0.018898902
0.48609704 0.05401222 0.019018494
0.49000686 0.053899333 0.019036829
0.49399841 0.053979784 0.019030582
0.49798453 0.053982187 0.019035835
0.50197095 0.0538975 0.019037221
0.5059399 0.053987183 0.019028798
0.50989592 0.053616989 0.019038923
0.51365727 0.05294859 0.019034937
0.5166744 0.052339423 0.019034516
0.48669529 0.056077078 0.019055955
0.48992619 0.056382541 0.018855928
0.49402452 0.056517098 0.019028908
0.49790573 0.056436837 0.019042531
0.5016644 0.056328412 0.019035516
0.50518179 0.056090083 0.019054299
0.49154919 -0.012191705 0.021686492
0.48377725 -0.0084413085 0.02209354
0.48595256 -0.0098962318 0.022021413
0.48891053 -0.01141175 0.021979528
0.47999156 -0.0042395266 0.023948848
0.48138672 -0.0059959618 0.02202112
0.47873458 -0.0020211921 0.022056365
0.47726649 0.00211043 0.021992858
0.47679085 0.0060829413 0.02200366
0.47713938 0.0099648433 0.021965612
0.47839487 0.013978806 0.022009725
0.4797239 0.016523186 0.021942616
0.48112819 0.018420279 0.022124154
0.48318085 0.02058991 0.022217082
0.48594162 0.022548992 0.021970596
0.49028704 0.024495522 0.022058578
0.49227691 0.025076864 0.021781266
0.49106273 -0.012060965 0.024830773
0.49237382 -0.012402502 0.026293013
0.48361138 -0.0083323121 0.026069835
0.48565826 -0.009714596 0.025932457
0.48913184 -0.011433783 0.026099872
0.47995287 -0.0041831071 0.026118854
0.48148397 -0.0061272061 0.025983728
0.47866431 -0.0018811518 0.025980501
0.47730395 0.0019595383 0.026044855
0.47679627 0.0060371673 0.026041143
0.47717163 0.010105575 0.026016207
0.47836024 0.013896075 0.026000176
0.47969928 0.016486097 0.025824739
0.48115444 0.018457195 0.026189266
0.48309594 0.020508336 0.026208511
0.48594621 0.022545746 0.025993044
0.49022502 0.02448364 0.025871277
0.49210989 0.025050379 0.025634553
0.49166903 -0.012213352 0.030734807
0.49202052 -0.012307648 0.028520536
0.48345542 -0.0082026413 0.02998613
0.48553485 -0.0096501987 0.029908566
0.48901016 -0.011388272 0.030042125
0.47988239 -0.0040803407 0.030071424
0.48142189 -0.0060493667 0.029793488
0.47862491 -0.0017947775 0.029962672
0.47724846 0.0021953608 0.02995031
0.47679693 0.0061009456 0.029891763
0.47715107 0.010016836 0.029928032
0.47839808 0.013984128 0.029997459
0.47971791 0.016511749 0.029958567
0.48114738 0.018446336 0.030130841
0.48310503 0.020516336 0.030151406
0.48584563 0.022494111 0.030041467
0.48866701 0.023980215 0.029994229
0.49074265 0.0246369 0.029939737
0.49114594 -0.012073064 0.034029044
0.49411908 -0.012579028 0.034382585
0.48340386 -0.0081289662 0.033692498
0.48578021 -0.0097737387 0.034021553
0.48914519 -0.011467535 0.033856783
0.47991425 -0.0040936256 0.033681303
0.48139301 -0.0060217693 0.033926927
0.47875687 -0.0020541183 0.033926416
0.47728905 0.002045895 0.034056544
0.4768014 0.0061046276 0.034026127
0.47716302 0.010069756 0.034012273
0.47842705 0.014042458 0.03399675
0.47974929 0.016553728 0.034034021
0.48111624 0.018402861 0.034102891
0.48312649 0.020536859 0.034226347
0.48583525 0.022477817 0.034029916
0.48859742 0.023947384 0.034328025
0.49055099 0.024580412 0.034050796
0.49188218 -0.012278893 0.039572641
0.49218339 -0.012359877 0.037677068
0.48366615 -0.0083308788 0.03857515
0.4858515 -0.0098002246 0.03803065
0.48952147 -0.011628653 0.038002048
0.47994909 -0.0041859839 0.03797904
0.48166302 -0.0063135382 0.038066458
0.47882539 -0.0021948454 0.037968487
0.47733688 0.0018559269 0.037995256
0.47679818 0.0061129928 0.03793836
0.47719371 0.01019085 0.038046271
0.47840583 0.013995011 0.038026836
0.47972634 0.016525635 0.037946723
0.48114559 0.018442776 0.038156688
0.48306718 0.020478472 0.038217489
0.48585412 0.0224947 0.038069412
0.48854235 0.023921397 0.037758783
0.49038202 0.024521986 0.038086433
0.49152333 -0.01218239 0.041831519
0.48384514 -0.0084925601 0.04211193
0.48586023 -0.0098182335 0.042294316
0.48904794 -0.011445556 0.042101603
0.47986025 -0.0040583448 0.042296678
0.48152542 -0.0061499355 0.042178642
0.478728 -0.0020025794 0.041955389
0.47732928 0.0018527737 0.041984335
0.47681049 0.0059464322 0.041764457
0.47717121 0.010083293 0.041892465
0.47841427 0.014013206 0.042028621
0.47970632 0.016491991 0.041882582
0.48109812 0.018377559 0.042176493
0.48305658 0.020467753 0.04214463
0.485704 0.022403643 0.042107288
0.48847422 0.023889249 0.042002708
0.49045566 0.024545128 0.041980866
0.49104762 -0.012054508 0.044824675
0.49399835 -0.012556829 0.047227193
0.48366627 -0.0083661927 0.045990508
0.48570168 -0.009734082 0.045999318
0.4892092 -0.011473916 0.046529055
0.48135749 -0.0059589441 0.046007708
0.47873327 -0.0020007589 0.045953032
0.47730109 0.0019798726 0.045942977
0.47680834 0.0059964531 0.045871917
0.47716314 0.01003606 0.045855787
0.47842214 0.014032185 0.046017662
0.47959566 0.016336791 0.046270788
0.48096651 0.018195685 0.04597228
0.48311886 0.020527758 0.046114989
0.48578966 0.022452045 0.04598562
0.48840675 0.023857431 0.046202756
0.49027342 0.024489556 0.045957886
0.49215505 -0.012344213 0.051445231
0.48359844 -0.0083028274 0.049848266
0.48548827 -0.0096083954 0.050060451
0.4891353 -0.011437359 0.050127733
0.47997504 -0.0041909711 0.050658889
0.48149842 -0.0061319093 0.049820207
0.47870031 -0.0019335725 0.049974978
0.47728607 0.0020531251 0.049947955
0.47680664 0.0059652845 0.049853783
0.47718909 0.010119404 0.049992397
0.47847649 0.014151633 0.050005361
0.47960749 0.01635452 0.050275486
0.48100153 0.018242849 0.049979363
0.48305824 0.020467484 0.049985126
0.4856962 0.022400396 0.050021667
0.48835337 0.023832239 0.049528178
0.49017611 0.024456663 0.050020237
0.49164408 -0.012207046 0.054558918
0.49358788 -0.012530211 0.054249745
0.48348522 -0.0082092704 0.053935107
0.48593384 -0.009855886 0.053982206
0.48931929 -0.01155318 0.054059397
0.47991046 -0.0041075232 0.054250553
0.48148614 -0.0061134114 0.053958651
0.47869772 -0.0019288593 0.053954467
0.47729301 0.0020248843 0.053991165
0.47680345 0.005856412 0.054004636
0.47714821 0.0098960605 0.054010734
0.47842336 0.014026175 0.054036938
0.47958273 0.016327815 0.054020371
0.48095259 0.018179182 0.054032508
0.48310304 0.020509334 0.053962689
0.48574317 0.022423469 0.054135561
0.4882873 0.023801073 0.05364247
0.49008247 0.024426054 0.054064725
0.49167091 -0.01221864 0.05864425
0.49220243 -0.012362947 0.056809705
0.48343948 -0.0081550041 0.057372432
0.48568258 -0.0097097745 0.05804503
0.48909101 -0.011456205 0.058124498
0.47985461 -0.0040261843 0.057289783
0.48146918 -0.0060923719 0.058083162
0.47874257 -0.0020089946 0.058064681
0.47729981 0.0020047284 0.057974782
0.47680223 0.0059207091 0.058102366
0.47718108 0.010051229 0.05801069
0.47844124 0.014062567 0.057989765
0.47959578 0.016342817 0.057762351
0.48103073 0.01827378 0.058002546
0.48312107 0.020521823 0.057950452
0.48572874 0.022418264 0.058106739
0.48831162 0.023834296 0.057734501
0.49023113 0.024469933 0.05804988
0.49400651 0.025305688 0.056940649
0.49132264 -0.01212639 0.062200125
0.48372486 -0.008384252 0.062128253
0.48588702 -0.0098416582 0.061866619
0.4890427 -0.011417457 0.061785724
0.48149368 -0.0061135027 0.062058873
0.47871426 -0.0019408881 0.062061615
0.47727522 0.0021208995 0.061935574
0.47679779 0.005994265 0.062172201
0.47716609 0.0099836159 0.061958265
0.47843108 0.014045266 0.062010538
0.47957742 0.01631733 0.062002867
0.48101351 0.01825363 0.061965488
0.48311073 0.020513434 0.061885338
0.48565811 0.022370672 0.062071826
0.48839489 0.023853326 0.062131714
0.49018621 0.024457484 0.061856329
0.49091616 -0.012017103 0.064690433
0.48364335 -0.0083349915 0.06587778
0.48576134 -0.0097580059 0.065981008
0.48929965 -0.011490335 0.066338494
0.4799825 -0.0041932799 0.065570965
0.48150605 -0.0061204084 0.066140845
0.47879365 -0.0021222939 0.066042438
0.47732407 0.0019396271 0.065958157
0.47680148 0.0060321107 0.066131689
0.47720239 0.01015661 0.065944046
0.47845924 0.014102613 0.06602741
0.47961476 0.016366495 0.066154428
0.48104388 0.018289303 0.06593968
0.48311415 0.02051615 0.065999046
0.48564431 0.022364885 0.066087246
0.48853466 0.023906106 0.065656446
0.49067968 0.024624838 0.066064
0.49503621 0.025320664 0.066612124
0.49553022 -0.012700526 0.071130402
0.48352811 -0.0082563264 0.070185415
0.48563674 -0.0096863778 0.07000614
0.48917657 -0.011460789 0.069916621
0.47991943 -0.0041377409 0.070259817
0.48139551 -0.006001885 0.070006743
0.47875252 -0.0020356288 0.069965474
0.47729611 0.0020689864 0.06996505
0.47680008 0.006101476 0.069982246
0.47719082 0.010100568 0.069941089
0.47846088 0.014102906 0.07000877
0.4796356 0.016400319 0.070120566
0.48106039 0.018313838 0.069979526
0.4831098 0.020516925 0.070008837
0.48562503 0.022352887 0.070028827
0.48843223 0.023858754 0.069595262
0.49057806 0.024595151 0.069866434
0.49476174 0.025288764 0.070411541
0.49194989 -0.012289567 0.075025149
0.49270555 -0.012429974 0.07384371
0.48353276 -0.00823233 0.074023589
0.48579314 -0.009765408 0.073915146
0.48918745 -0.011510554 0.07423006
0.47994766 -0.0041565034 0.074553818
0.48144966 -0.0060608368 0.073862091
0.47874638 -0.0020230757 0.073980317
0.47728917 0.0020976444 0.074027777
0.47680685 0.0060836761 0.074007832
0.47714299 0.0099110221 0.073970348
0.47842503 0.013998671 0.074059665
0.47963217 0.016388154 0.074005276
0.48101446 0.018249616 0.074049264
0.48305783 0.020461349 0.074145265
0.4858419 0.022471087 0.074032858
0.48855597 0.023910355 0.073766746
0.49057731 0.024599783 0.07419914
0.49481258 0.025292089 0.074276619
0.49163154 -0.012206542 0.078170545
0.49204713 -0.012319231 0.076203085
0.48347539 -0.0081852851 0.077403292
0.48574135 -0.0097424593 0.077808633
0.48885953 -0.01138427 0.077973254
0.47993159 -0.0041191992 0.077766605
0.48155725 -0.0061897342 0.078032352
0.64286339 -0.0049517397 0.078952976
0.47869417 -0.0019072547 0.077955768
0.64285797 -0.0020704798 0.078959405
0.47733501 0.001867853 0.078059986
0.64285123 0.0017710255 0.078966945
0.47681984 0.0058913468 0.077963576
0.64284134 0.0059326352 0.078979827
0.47713527 0.009886303 0.07801199
0.64283156 0.010093997 0.078992456
0.47834715 0.0138111 0.077987671
0.64282459 0.013935015 0.07900054
0.47964084 0.016398968 0.077925824
0.48103777 0.018274058 0.078029811
0.64281994 0.017135743 0.079005115
0.48306704 0.020468749 0.078032851
0.48572394 0.022405135 0.078042209
0.4885737 0.023906602 0.078221701
0.49045199 0.024567679 0.078373879
0.49444658 0.025260145 0.077997148
0.49110308 -0.012064882 0.081531517
0.48377967 -0.008431308 0.08201208
0.48583338 -0.0098032299 0.082032159
0.48897541 -0.011379421 0.082127988
0.47986469 -0.0040276712 0.081018768
0.48157126 -0.0061956951 0.081941478
0.63878924 -0.0046977564 0.083809756
0.64081478 -0.0048240307 0.081395082
0.47871757 -0.0019443132 0.082048148
0.63878393 -0.0018490059 0.08381597
0.64080936 -0.0019591139 0.081401475
0.47732273 0.0019242264 0.081982858
0.63877767 0.0019491459 0.083822958
0.64080292 0.0018605905 0.081408717
0.4768205 0.0059374515 0.08195664
0.63876778 0.0060638175 0.083835803
0.64079297 0.0059985979 0.081421576
0.4771499 0.0099400356 0.081988141
0.638758 0.010178245 0.083848543
0.64078319 0.010136359 0.081434272
0.47837353 0.013874139 0.081952512
0.63875133 0.01397593 0.083856225
0.6407764 0.013955589 0.08144217
0.479624 0.016375272 0.081923671
0.48102036 0.01825989 0.082010232
0.63874662 0.017140556 0.083861046
0.64077175 0.017138161 0.081446826
0.48305631 0.020459788 0.08178018
0.48576969 0.022426335 0.082012728
0.48852706 0.023884183 0.082094535
0.49031848 0.024529664 0.082181245
0.49408415 0.025228521 0.081680469
0.4836067 -0.0082973642 0.085992686
0.48578957 -0.0097859167 0.085917614
0.48947167 -0.011546715 0.085978016
0.48148522 -0.0060993936 0.085944973
0.63678718 -0.0048876712 0.086196356
0.47875339 -0.0020105618 0.08598844
0.63678169 -0.002054878 0.086202823
0.47728154 0.0020936336 0.08604873
0.63677508 0.0020367082 0.086210109
0.47681797 0.0060057449 0.086035423
0.63676602 0.00581358 0.086222015
0.4771516 0.0099602817 0.086032279
0.6367563 0.0099049443 0.086234726
0.47842073 0.013976433 0.085940883
0.63674897 0.013996045 0.086243205
0.47967312 0.016448755 0.086001702
0.48108068 0.0183341 0.085969999
0.63674414 0.017142922 0.086248256
0.48306456 0.020471042 0.086026303
0.48569342 0.022385558 0.086024381
0.48848131 0.023861973 0.085932486
0.49019396 0.02449405 0.086193286
0.49390236 0.025214655 0.086033255
0.49366632 -0.012536161 0.090499721
0.483565 -0.0082646944 0.089558765
0.48583162 -0.0097891903 0.090158373
0.48923695 -0.011499449 0.089620501
0.47996449 -0.0041311765 0.090017647
0.48140967 -0.0059983712 0.089964613
0.63363189 -0.0048749088 0.089957818
0.47868684 -0.0018727977 0.089955389
0.63377321 -0.0020489988 0.089783095
0.47731271 0.0019825329 0.090039685
0.63374078 0.0020018022 0.089827172
0.47681817 0.0060627521 0.089982741
0.63380677 0.0059115016 0.089749701
0.4771727 0.010049356 0.089971066
0.63379705 0.0099687716 0.089762501
0.47837403 0.013874572 0.08998502
0.6319564 0.015538886 0.091790199
0.63378984 0.01402577 0.089770667
0.47966754 0.01642943 0.090102695
0.48105827 0.018294821 0.090006121
0.63192242 0.016522778 0.091820814
0.63359618 0.017186426 0.089985818
0.48306382 0.020462461 0.090051353
0.48568755 0.022375192 0.089969181
0.48843241 0.023838136 0.090051055
0.48998216 0.02443298 0.090100832
0.49402362 0.025235489 0.089921512
0.4918251 -0.012198844 0.095359094
0.4937461 -0.012341374 0.095329888
0.49797076 -0.012328221 0.095863566
0.50153959 -0.012136331 0.095864043
0.48354158 -0.008144794 0.094329447
0.48619899 -0.0092694173 0.095235415
0.49001983 -0.0099533768 0.095730446
0.49405003 -0.0099846814 0.095865399
0.49805626 -0.0099532995 0.095864423
0.5020383 -0.0099640274 0.095871203
0.50601608 -0.0099857748 0.095863238
0.51006281 -0.0099534197 0.095864438
0.51402146 -0.009837985 0.095869079
0.51803511 -0.0097459722 0.095863976
0.52194798 -0.0096134059 0.095868431
0.52599835 -0.0094597125 0.095862277
0.53000265 -0.0094492557 0.095868379
0.53394216 -0.0092529599 0.095860392
0.53803897 -0.009182794 0.095866233
0.54164284 -0.0090854438 0.095856152
0.54594731 -0.0088583147 0.095853925
0.55011851 -0.0087837521 0.095843412
0.55406576 -0.0087201586 0.095855616
0.55775601 -0.0085775321 0.095851608
0.56195617 -0.0085366983 0.095852859
0.56603867 -0.0084108347 0.095841162
0.56982225 -0.0082916478 0.095850609
0.57354903 -0.008278423 0.095842086
0.47999045 -0.0042351345 0.095503926
0.48207077 -0.0057202806 0.095091343
0.4859862 -0.0059974263 0.095873088
0.48998857 -0.0060222219 0.095865153
0.49402374 -0.0060197562 0.09586516
0.49806675 -0.0059755002 0.095865011
0.50203103 -0.0060015968 0.095871329
0.50599009 -0.0059937588 0.095862754
0.51008797 -0.0060071209 0.095864095
0.51403326 -0.0060276985 0.095869623
0.51805681 -0.0060023819 0.095862292
0.52202523 -0.0059813573 0.095868662
0.52601027 -0.0060011041 0.095862329
0.53002363 -0.006022918 0.095867835
0.53395939 -0.0060380567 0.09586221
0.53798366 -0.0060009621 0.095866822
0.54169846 -0.0059999493 0.095852673
0.54599977 -0.0060337698 0.095853798
0.55010277 -0.0060319551 0.095847338
0.55420142 -0.0060405652 0.09585239
0.55782044 -0.0060733459 0.095851809
0.56197453 -0.006117336 0.095841467
0.56610328 -0.0061227931 0.095853038
0.57000422 -0.0061150417 0.09585426
0.57403964 -0.0060284766 0.095836118
0.57806098 -0.0060894676 0.095850818
0.5819366 -0.0060529695 0.095850751
0.58584344 -0.0057983496 0.095850445
0.5900386 -0.0056396564 0.095841512
0.59414631 -0.0055778269 0.095848322
0.59805667 -0.0053549679 0.095850676
0.60210806 -0.0053182361 0.095847614
0.60589027 -0.0053156111 0.095850594
0.60987872 -0.0050172093 0.095848836
0.61404312 -0.0050348788 0.09583357
0.61811715 -0.0049404879 0.095846131
0.62217575 -0.0047494564 0.095794804
0.62612778 -0.004739224 0.094946437
0.62977445 -0.0047848704 0.093206204
0.47905996 -0.001879831 0.094791874
0.48210943 -0.0020080707 0.095866092
0.48602268 -0.0020166314 0.095873073
0.48997295 -0.001978942 0.095866323
0.49403006 -0.0019988313 0.095867328
0.49806482 -0.002007501 0.095865279
0.50203341 -0.0020148209 0.095871188
0.50599986 -0.0020093145 0.095865123
0.51007921 -0.0020435038 0.095865436
0.51402873 -0.0020529521 0.09587051
0.51800919 -0.0019992176 0.095863372
0.52202082 -0.0019955421 0.095869668
0.5260036 -0.0020155741 0.095863335
0.53001589 -0.002032002 0.095868722
0.53397369 -0.0020559982 0.09586224
0.53800404 -0.0020279235 0.095867701
0.54171908 -0.0020490496 0.095854633
0.54600328 -0.0021171016 0.095856123
0.55012703 -0.0021251012 0.095846795
0.55417496 -0.0020469178 0.095857389
0.5578177 -0.0020718141 0.095856838
0.56196493 -0.0020557968 0.095845304
0.56610364 -0.0021051068 0.095853172
0.5699569 -0.002105711 0.095854223
0.57403034 -0.0020256115 0.095842451
0.57806027 -0.0020736731 0.095854908
0.58198673 -0.0020886825 0.095852599
0.5857842 -0.0019729426 0.095849201
0.59006429 -0.0019134218 0.09583541
0.59416974 -0.0018964735 0.095848814
0.59812224 -0.001918138 0.095849991
0.60210466 -0.0019502433 0.095847525
0.60587656 -0.0019771343 0.095846906
0.60987908 -0.0019927847 0.095848136
0.61401337 -0.0019729587 0.095829986
0.6182223 -0.001987152 0.09584672
0.62233913 -0.0019610228 0.095803604
0.62605518 -0.0019487893 0.095161706
0.62997013 -0.0019262063 0.093305282
0.47815156 0.0020114272 0.095060766
0.48208946 0.0019615539 0.095867895
0.48598418 0.0019502895 0.095874183
0.48997959 0.0019890713 0.09586598
0.49402839 0.0019795003 0.095865056
0.49805433 0.0019798153 0.095864937
0.50202447 0.001975276 0.09587241
0.50599283 0.0019562298 0.095864885
0.51007915 0.001930132 0.095865138
0.51403022 0.0019566747 0.095869496
0.51802576 0.0019663132 0.095864169
0.52201903 0.0019886405 0.095869802
0.52600187 0.0019852854 0.095863275
0.53001666 0.001969185 0.095868841
0.53396028 0.0019461506 0.095862135
0.53800845 0.0020427301 0.095869318
0.54172254 0.002099792 0.095855378
0.54597872 0.0020985147 0.095857002
0.55006719 0.0020882105 0.095847659
0.5541842 0.0021509042 0.095855266
0.55781353 0.002131863 0.095854685
0.56194997 0.0021394328 0.095848493
0.56607562 0.0021207882 0.095855713
0.56997013 0.0021062519 0.095856793
0.57403016 0.0021079071 0.095838763
0.57806814 0.0020912532 0.095853195
0.58198315 0.0020665813 0.095850632
0.5858345 0.0020689422 0.095852882
0.59003973 0.0020617158 0.095842771
0.59414488 0.0020340732 0.095851123
0.59810865 0.0020251675 0.095852219
0.60209978 0.0019953242 0.095849827
0.60585976 0.0020086884 0.095846646
0.60986298 0.0019998581 0.095848016
0.61403948 0.0021019278 0.095836535
0.61820287 0.0020722453 0.095849149
0.62224507 0.0020821302 0.095834672
0.62594116 0.0021291217 0.095398061
0.62977022 0.0020406221 0.093650699
0.47786331 0.0060330159 0.095174618
0.48209628 0.0059742411 0.095867172
0.48599645 0.005966166 0.095874093
0.48996422 0.0059712171 0.095867269
0.49402198 0.005952023 0.095868334
0.49804372 0.0059532076 0.095867239
0.50202543 0.0059253597 0.095873207
0.50599205 0.0059340112 0.095866062
0.51007944 0.0059271259 0.095864557
0.51402217 0.0059546586 0.095871523
0.51801986 0.0059241862 0.095865406
0.52201444 0.0059766499 0.095870703
0.52599478 0.0059623807 0.095864333
0.53000915 0.0059552905 0.095869884
0.53396559 0.005936035 0.095863298
0.53798288 0.0060196994 0.095868506
0.54167432 0.0060736206 0.095857136
0.54598194 0.0061190701 0.095855102
0.55009186 0.0061027184 0.095844746
0.5541836 0.0060807923 0.095853701
0.55780262 0.0060659042 0.09585312
0.56195253 0.0060346629 0.0958426
0.56609511 0.0060264883 0.095851719
0.56995875 0.0060213874 0.095853135
0.57401729 0.0060349475 0.095840484
0.57804894 0.0060238298 0.095854245
0.58196056 0.0059993276 0.095851794
0.58582664 0.0059613627 0.095851682
0.59009838 0.0060223844 0.095838621
0.59418374 0.0060872249 0.095847517
0.59812272 0.0060733431 0.095848866
0.60209292 0.0060540363 0.095846228
0.60587966 0.0060748085 0.0958483
0.60988051 0.0060621197 0.095849417
0.61402833 0.0061493432 0.095833197
0.61821091 0.0061335247 0.095847704
0.62226802 0.00612354 0.095837601
0.62587357 0.0061198212 0.095502615
0.62962848 0.0060567139 0.093858019
0.47809255 0.00996722 0.095132932
0.48208866 0.01003045 0.095869496
0.48600373 0.010033515 0.095875733
0.48997179 0.010020386 0.095868647
0.49403039 0.010040207 0.09586788
0.4980585 0.010025579 0.095865645
0.50201952 0.010030029 0.095872864
0.50598282 0.010038878 0.09586449
0.51006806 0.01001839 0.095866859
0.51401955 0.010023501 0.095872194
0.5180164 0.010032492 0.095865913
0.52201128 0.01000603 0.095871277
0.52599174 0.010009095 0.095864899
0.53000623 0.010006887 0.095870405
0.53396827 0.010015752 0.095863834
0.53798902 0.010044863 0.095869295
0.54171205 0.010044111 0.095856339
0.54611629 0.010100496 0.095860429
0.55020463 0.010083168 0.095851213
0.55415893 0.010078545 0.095858812
0.55780143 0.010070419 0.095858246
0.56194407 0.010096292 0.095846564
0.56608617 0.010079183 0.095854558
0.56996047 0.010072298 0.09585578
0.57400858 0.010059551 0.095840529
0.57803977 0.010052921 0.095854454
0.58194709 0.01004013 0.095851958
0.58582133 0.010022178 0.095851883
0.58999896 0.01006672 0.095842198
0.59413314 0.010146078 0.095852107
0.59809756 0.010132625 0.095853247
0.60208803 0.010130609 0.095850848
0.60585833 0.010122817 0.095850237
0.6098693 0.010111457 0.095851369
0.61401916 0.010092489 0.095836669
0.61819279 0.010093782 0.095850013
0.62226266 0.010086816 0.09582983
0.62592739 0.010094278 0.095411077
0.62971765 0.010055419 0.093719214
0.4788056 0.013861355 0.094865978
0.48212984 0.014012557 0.095867462
0.48603019 0.013979636 0.095874704
0.48995489 0.013984247 0.095866635
0.49400347 0.0140021 0.095867679
0.49803567 0.014017503 0.09586753
0.50201899 0.014012708 0.095873885
0.50598258 0.013998835 0.095866509
0.51006562 0.013983455 0.095866702
0.51401687 0.01398945 0.095872208
0.51801276 0.01399712 0.095865771
0.52200913 0.014003491 0.095871344
0.525989 0.013993313 0.095864691
0.53000653 0.013990242 0.095870435
0.53394073 0.014010543 0.095863715
0.53798848 0.014043398 0.095869541
0.54167008 0.014035014 0.095855013
0.54610956 0.014087244 0.095856562
0.5502044 0.014048853 0.09584444
0.5541718 0.014068001 0.095854588
0.5577907 0.014065057 0.095854029
0.56193525 0.014104055 0.095847309
0.56607485 0.014096465 0.095855296
0.5699538 0.01409081 0.095856547
0.57400244 0.014086414 0.095841303
0.57803792 0.014084868 0.095855214
0.58194882 0.014084486 0.095852695
0.58581448 0.014087595 0.095852576
0.5900324 0.014066869 0.095841356
0.59414643 0.014074071 0.095850676
0.59810013 0.014071163 0.095851958
0.60208124 0.014068524 0.09584941
0.60585296 0.014065655 0.095848784
0.60985661 0.014063807 0.095850065
0.61401355 0.014037828 0.095834024
0.61819994 0.014057055 0.095848657
0.62227219 0.014051874 0.095820427
0.62606543 0.014075508 0.095215656
0.62994945 0.014003796 0.093371287
0.47970077 0.016420539 0.094498679
0.48203063 0.017922886 0.09526521
0.48606092 0.018016696 0.095876813
0.48996377 0.017966017 0.095869645
0.49401465 0.017972624 0.095869906
0.49804169 0.017969213 0.095868699
0.50201178 0.01796592 0.095874906
0.50597775 0.017964523 0.095867611
0.51005989 0.017964542 0.095867924
0.51401323 0.017967816 0.095873214
0.51800823 0.017967833 0.095866822
0.52200496 0.017970571 0.095872357
0.52598292 0.017989356 0.095865883
0.52999979 0.017996889 0.095871471
0.53395289 0.017998325 0.095864803
0.53798723 0.017995834 0.095870353
0.54169232 0.017998045 0.095857106
0.54610056 0.017988559 0.095858924
0.55018711 0.018000916 0.095848002
0.55416149 0.01800113 0.09585721
0.55779058 0.018003993 0.095856614
0.56192565 0.018005449 0.095846742
0.56606084 0.018010665 0.095855221
0.56994313 0.018016193 0.095856607
0.5739997 0.018017955 0.095840611
0.57804585 0.018022522 0.095855244
0.58202529 0.018051039 0.095852837
0.58586031 0.017993372 0.095852211
0.59001392 0.018033039 0.095840812
0.59412241 0.018000964 0.095853135
0.59804112 0.017854774 0.095853031
0.60207534 0.01779273 0.095849909
0.60583055 0.017698754 0.095848866
0.60985053 0.017444754 0.095850974
0.61400473 0.017433813 0.095835045
0.61812866 0.017395634 0.095848829
0.62223798 0.017142832 0.095804706
0.62613583 0.017111365 0.094995044
0.6298607 0.017170329 0.093215697
0.4833062 0.02052165 0.094521523
0.48613653 0.021756766 0.095239066
0.48989156 0.022001689 0.095793553
0.49400279 0.021954821 0.095867693
0.49803513 0.021961015 0.095866546
0.50201279 0.021954169 0.095873855
0.50597447 0.021930542 0.095867455
0.51005745 0.021924734 0.095867775
0.51401019 0.021958862 0.095873274
0.51800406 0.021982433 0.09586677
0.5220024 0.021985298 0.095872425
0.52592885 0.021894701 0.095865324
0.52998483 0.021772528 0.095872112
0.53390276 0.021622214 0.095864378
0.5379774 0.021546626 0.095871352
0.54159135 0.021488009 0.095858321
0.54610074 0.021299785 0.095857747
0.55018938 0.021289807 0.095851868
0.55409777 0.021140318 0.095857032
0.55777973 0.021004036 0.09585496
0.56192183 0.020963475 0.095852368
0.56609952 0.02077199 0.095854372
0.56995034 0.020780778 0.095855594
0.57389009 0.020646552 0.095850334
0.57800472 0.020441962 0.09585423
0.58208156 0.020431302 0.095852442
0.58573312 0.020401806 0.09586551
0.49035728 0.024324488 0.095148303
0.49407688 0.024711397 0.095618978
0.49792087 0.024701392 0.095874034
0.50190645 0.024510784 0.09587881
0.50596434 0.024435379 0.095865302
0.50969797 0.024323521 0.095870055
0.51401526 0.024168285 0.095872656
0.51754218 0.024135403 0.095869564
0.5204488 0.024089785 0.095881812
