# .PCD v0.7 - Point Cloud Data file format
VERSION 0.7
FIELDS x y z
SIZE 4 4 4
TYPE F F F
COUNT 1 1 1
WIDTH 820
HEIGHT 1
VIEWPOINT 0 0 0 1 0 0 0
POINTS 820
DATA ascii
0.37501818 -0.024585159 0.0032503505
0.3773315 -0.02487923 0.0027510996
0.38207328 -0.02487888 0.0031755778
0.38620549 -0.02487842 0.003055776
0.38990051 -0.024877938 0.002637784
0.39411461 -0.024877656 0.0034032045
0.39781898 -0.024877172 0.0029854951
0.40196609 -0.024876708 0.0028653815
0.4067018 -0.024876298 0.0032906923
0.41029525 -0.024875868 0.0030683775
0.41403309 -0.024875425 0.0028714044
0.41757274 -0.024875052 0.0028582145
0.42237675 -0.024874642 0.0032964824
0.42481288 -0.02471187 0.0030935996
0.37494671 -0.022006268 0.0031216005
0.42499661 -0.021918215 0.0033573566
0.37494314 -0.017946983 0.0031177418
0.42499664 -0.0178496 0.0033611117
0.37494463 -0.013974754 0.0031013105
0.42499679 -0.014052306 0.0033646116
0.37494761 -0.010055524 0.0031257689
0.42499682 -0.0099838665 0.0033683665
0.37494129 -0.0059089814 0.0031055869
0.42499685 -0.0059155147 0.0033721174
0.37494567 -0.0021384733 0.0030651859
0.42499688 -0.0021184683 0.0033756171
0.37494275 0.0019909032 0.0031033293
0.42499691 0.0019497062 0.0033793661
0.37494513 0.0060259094 0.0030488973
0.42499706 0.006017792 0.0033831189
0.37494165 0.010013206 0.0030333851
0.42499709 0.010085785 0.0033868644
0.37494394 0.014046097 0.003092323
0.42499712 0.01415369 0.0033906123
0.37494159 0.017953394 0.003030163
0.42499718 0.017950317 0.003394108
0.37494448 0.022078404 0.0030881146
0.42499727 0.022018047 0.0033978065
0.37502804 0.024535114 0.0029947937
0.37789494 0.025049835 0.0029373597
0.38203087 0.025050113 0.0028565286
0.38596463 0.02505037 0.0031041033
0.39034635 0.025050709 0.0030613632
0.39407057 0.025051009 0.0029153673
0.3979516 0.02505129 0.002974109
0.40170622 0.025051542 0.0031945331
0.40612832 0.025051903 0.0029744399
0.41028562 0.025052216 0.0028935515
0.41411376 0.025052518 0.0028333538
0.41779846 0.025052721 0.0033349958
0.42195234 0.025053093 0.0028872439
0.42481914 0.024837626 0.0033600114
0.37504685 -0.024582243 0.0061293454
0.37821513 -0.024879657 0.0057104733
0.38211986 -0.024879429 0.0058949203
0.38598552 -0.0248791 0.0061470671
0.38979208 -0.024878683 0.0060815224
0.39369711 -0.024878232 0.0059268638
0.39813545 -0.024877794 0.0060823355
0.40217915 -0.024877384 0.0061661797
0.4061054 -0.024876893 0.005796086
0.40988398 -0.024876529 0.0059769754
0.41375118 -0.02487614 0.0060993158
0.41788635 -0.024875678 0.0059814812
0.42181709 -0.024875227 0.0058264215
0.42480341 -0.024617737 0.0059314193
0.37494403 -0.022035452 0.0061590425
0.42499673 -0.022036117 0.0063558281
0.37494904 -0.017991034 0.0060834563
0.42499679 -0.017991342 0.0062299813
0.37494221 -0.01395096 0.0061183944
0.42499682 -0.013959455 0.0063632112
0.37494752 -0.0099668335 0.0060166405
0.42499685 -0.010051703 0.0063020131
0.37494379 -0.0060308706 0.0061233346
0.42499688 -0.0060129394 0.006305703
0.37494561 -0.0020003621 0.006092173
0.42499688 -0.0019742625 0.0063093952
0.37494493 0.0019690904 0.0060458751
0.42499697 0.0020643233 0.006313086
0.37494448 0.0060819364 0.0061053908
0.42499712 0.0061028218 0.006316775
0.37494329 0.0098913303 0.0060001854
0.42499718 0.0098720053 0.0063202232
0.37494579 0.013958582 0.0060735783
0.42499721 0.013910329 0.0063239094
0.37494296 0.018027795 0.0060229036
0.4249973 0.017948568 0.0063275769
0.37494546 0.022053378 0.0060353484
0.4249973 0.021986714 0.006331108
0.37506202 0.024718046 0.006260152
0.37820062 0.025049558 0.0056667156
0.38201976 0.025049718 0.0060451147
0.38586119 0.025049958 0.0062327613
0.38978115 0.025050277 0.0060247621
0.39403978 0.025050601 0.0059663118
0.39796174 0.025050886 0.0060358155
0.40217581 0.025051188 0.0061502983
0.40628356 0.025051553 0.0057088379
0.4099201 0.025051765 0.006188767
0.41367033 0.025052076 0.0059532668
0.41789141 0.025052372 0.0060679023
0.42217067 0.025052702 0.0060093538
0.4248383 0.024803475 0.0062271222
0.37501168 -0.024526095 0.0098154917
0.37791443 -0.024880411 0.010328961
0.3819398 -0.024880107 0.0097851334
0.38594633 -0.024879858 0.0098702544
0.39034259 -0.024879502 0.010235929
0.39422306 -0.024879014 0.0098725483
0.39800775 -0.024878601 0.0098100491
0.40184563 -0.024878245 0.010060854
0.40572071 -0.024877872 0.010240927
0.40979391 -0.024877321 0.0096949348
0.41391462 -0.024876956 0.010012753
0.41803256 -0.024876583 0.010328084
0.42212591 -0.024876034 0.009781817
0.42486548 -0.024593333 0.010169152
0.37494692 -0.022063835 0.010075138
0.42499679 -0.021915695 0.010076742
0.3749471 -0.018019522 0.010048264
0.42499682 -0.017921209 0.010207418
0.37494698 -0.014020318 0.010032498
0.42499685 -0.014051564 0.010147378
0.37494633 -0.0099594956 0.010066019
0.42499688 -0.010051531 0.010150995
0.37494603 -0.0059366426 0.0099648852
0.42499688 -0.0060515804 0.01015461
0.37494671 -0.001945063 0.010066841
0.42499697 -0.0020517216 0.010158222
0.37494436 0.0020434952 0.0099412203
0.42499706 0.001948052 0.010161839
0.37494746 0.0059722573 0.010038523
0.42499721 0.0059477356 0.010165447
0.37494221 0.0099271797 0.010036193
0.4249973 0.0099473344 0.010169064
0.37494862 0.013892596 0.0099404296
0.4249973 0.013946842 0.010172655
0.37494195 0.018040463 0.010023151
0.4249973 0.017946268 0.010176117
0.37494805 0.022035714 0.0099226646
0.4249973 0.021945605 0.010179547
0.37502968 0.024727721 0.0099573554
0.37785158 0.025049118 0.0098481169
0.38196898 0.025049275 0.01012845
0.38618261 0.025049509 0.0098962253
0.39013377 0.025049789 0.0099744694
0.39408496 0.025050072 0.010053427
0.39831373 0.025050417 0.0098224273
0.40210563 0.025050661 0.010121761
0.4057008 0.025050959 0.0098977881
0.40981936 0.025051231 0.010178978
0.41406301 0.025051577 0.0099466406
0.41802588 0.025051868 0.010025087
0.4219887 0.025052153 0.01010422
0.42486346 0.024758661 0.0099938279
0.37500891 -0.024608269 0.013977087
0.37803969 -0.024881015 0.0141119
0.38199902 -0.024880808 0.014192487
0.38602084 -0.024880534 0.013870927
0.38978302 -0.024880316 0.013969588
0.39394408 -0.024879962 0.014243288
0.39779824 -0.024879482 0.013886744
0.4018566 -0.024879027 0.013774974
0.4061383 -0.024878694 0.014332656
0.41000757 -0.024878204 0.013975928
0.41407543 -0.024877751 0.01386413
0.41836616 -0.024877373 0.014214649
0.42223501 -0.024876928 0.014065251
0.42487448 -0.024624985 0.014338531
0.37494966 -0.022007894 0.013865047
0.42499682 -0.022066746 0.013853631
0.37494648 -0.018064711 0.014041327
0.42499685 -0.018110232 0.013981825
0.37494704 -0.013964097 0.013881349
0.42499688 -0.014013314 0.013923153
0.37494841 -0.010006091 0.013981629
0.42499688 -0.010051358 0.013926692
0.37494615 -0.0059997621 0.01388637
0.42499697 -0.006089489 0.013930236
0.37494856 -0.0020097475 0.013942129
0.42499706 -0.0019896559 0.013871568
0.3749443 0.0020337112 0.014027069
0.42499721 0.0019600561 0.013999747
0.37495118 0.0059858258 0.014076686
0.42499724 0.0060597071 0.013941085
0.3749463 0.0099748997 0.014188841
0.4249973 0.010021227 0.013944605
0.37495002 0.01398275 0.014093964
0.4249973 0.01398266 0.013947995
0.37494633 0.017966755 0.014143541
0.4249973 0.01794401 0.013951359
0.37494916 0.02202655 0.01410107
0.4249973 0.021905279 0.013954717
0.37500447 0.024671411 0.013938827
0.37808895 0.02504872 0.013878321
0.38205168 0.025048874 0.014106083
0.38575891 0.025049066 0.013883573
0.38989878 0.025049269 0.013949027
0.394052 0.02504953 0.014172672
0.39780155 0.025049841 0.013941426
0.40172485 0.02505012 0.014020342
0.40608743 0.02505045 0.013991963
0.41001502 0.025050731 0.014070286
0.41394761 0.025051041 0.013975114
0.41815838 0.025051367 0.013922964
0.42231429 0.025051659 0.014035472
0.42486498 0.024762835 0.013996056
0.3750059 -0.024454994 0.017991822
0.37795633 -0.024881605 0.017799446
0.38221458 -0.024881462 0.018349094
0.38602179 -0.024881199 0.018000606
0.39003688 -0.024880962 0.017892739
0.39407191 -0.02488073 0.017993387
0.39811078 -0.024880342 0.018093359
0.40213522 -0.024879888 0.017984744
0.40595922 -0.024879456 0.017840495
0.41021761 -0.024879079 0.018184889
0.41425139 -0.024878625 0.018076248
0.4181008 -0.024878141 0.017726423
0.42242694 -0.024877759 0.018084293
0.42492378 -0.024586653 0.01798323
0.37495178 -0.022017295 0.018144831
0.42499685 -0.021958226 0.01768183
0.37495023 -0.017981682 0.018003561
0.42499688 -0.01802787 0.01756298
0.37495175 -0.014014186 0.018106893
0.42499691 -0.014110016 0.017688759
0.37494975 -0.0099675404 0.017964723
0.42499697 -0.010051189 0.017631181
0.37495121 -0.0059795701 0.018090371
0.42499703 -0.0059905606 0.017573608
0.37494859 -0.0020051626 0.017992634
0.42499721 -0.0020767467 0.017699378
0.37495103 0.0019311981 0.018074768
0.42499724 0.0019837038 0.017641809
0.37494636 0.005954633 0.018276073
0.4249973 0.0060459557 0.017584225
0.37494621 0.010066558 0.018235652
0.4249973 0.0099557275 0.017709851
0.37494886 0.014041214 0.018250804
0.4249973 0.014017799 0.017652104
0.37494522 0.018038671 0.018166501
0.4249973 0.017941799 0.017655401
0.37494919 0.021974247 0.018294875
0.4249973 0.021865707 0.017658686
0.37504923 0.024670618 0.01814612
0.37794909 0.025048314 0.017787
0.38200146 0.02504847 0.018060934
0.38603461 0.025048645 0.01816014
0.3900373 0.025048854 0.01791623
0.39392602 0.025049033 0.017994747
0.39824831 0.025049347 0.017968075
0.40214124 0.025049625 0.018046267
0.40603641 0.025049927 0.017953834
0.41020781 0.025050243 0.017903777
0.41426098 0.025050513 0.0181768
0.41829473 0.025050847 0.017931769
0.42226508 0.025051158 0.017849542
0.42492482 0.024671502 0.017909428
0.3750532 -0.02465488 0.022140928
0.37802511 -0.024882251 0.021862607
0.38172409 -0.024882067 0.021960417
0.38586009 -0.024881883 0.022234796
0.39000642 -0.024881613 0.021958087
0.39376852 -0.024881387 0.021835618
0.3980132 -0.024881177 0.022158269
0.40200514 -0.024880763 0.022053
0.4059886 -0.024880277 0.021740869
0.41005474 -0.02487991 0.022055242
0.41402143 -0.024879511 0.022146715
0.41801915 -0.02487902 0.021834437
0.42181352 -0.024878664 0.022054959
0.42475441 -0.024650089 0.022244124
0.37495002 -0.021994788 0.022152694
0.42499694 -0.022053597 0.022228805
0.37494886 -0.018062612 0.022136813
0.42499706 -0.018003078 0.022154281
0.37495103 -0.014050278 0.022090619
0.42499709 -0.013950215 0.022080004
0.37494746 -0.0099975532 0.022127049
0.42499715 -0.0099857654 0.022161018
0.37495112 -0.0060129385 0.022084475
0.42499724 -0.0060238638 0.022242758
0.37494862 -0.0019673884 0.022137376
0.4249973 -0.0019704464 0.022168236
0.37494913 0.0019982893 0.022064976
0.4249973 0.002085303 0.022093939
0.37494925 0.0059992927 0.02212544
0.4249973 0.0059542162 0.022256298
0.37494519 0.0100416 0.022053482
0.4249973 0.0099238148 0.022178249
0.37495178 0.014065314 0.022085285
0.4249973 0.014060774 0.022181673
0.37494507 0.018020758 0.022041095
0.42499733 0.018032622 0.022266285
0.37495109 0.022031687 0.022054048
0.4249973 0.021896483 0.022110358
0.3750543 0.024651041 0.022070095
0.37797263 0.025047882 0.022020219
0.38192445 0.025048073 0.021918757
0.38601965 0.025048247 0.022034291
0.38995728 0.025048414 0.022151085
0.39391777 0.025048606 0.022049624
0.39792299 0.025048831 0.021814404
0.40199995 0.025049102 0.021925502
0.40592659 0.025049366 0.022181273
0.40993714 0.025049718 0.021803947
0.41384086 0.025049977 0.022029951
0.41793108 0.025050255 0.022249358
0.42164409 0.025050558 0.022027373
0.42471227 0.024697328 0.022042016
0.37505379 -0.024493059 0.026076138
0.37809125 -0.024882892 0.025859067
0.38203594 -0.024882659 0.02575703
0.38606566 -0.024882551 0.026461646
0.38997483 -0.024882255 0.025956627
0.39392859 -0.024882022 0.025854558
0.39791566 -0.024881853 0.026155898
0.40187564 -0.024881592 0.026054224
0.4058384 -0.024881186 0.025951575
0.40980393 -0.024880743 0.025848275
0.41379371 -0.024880381 0.026150187
0.41776553 -0.02487994 0.02604739
0.42155746 -0.024879463 0.025710931
0.42476773 -0.024686033 0.02651006
0.37495813 -0.021986404 0.025885137
0.42499697 -0.022066997 0.026641835
0.37496102 -0.018010853 0.026097409
0.42499709 -0.018102692 0.026586864
0.37495813 -0.013987215 0.025872065
0.42499721 -0.014012789 0.026590372
0.37495834 -0.0099438904 0.026060605
0.42499724 -0.0099229757 0.026593875
0.37495995 -0.0059861303 0.025936194
0.4249973 -0.0059558768 0.026538908
0.37495035 -0.0019472446 0.026149549
0.4249973 -0.0021322044 0.026658913
0.37495372 0.0019121056 0.026075661
0.4249973 0.0018347184 0.026603794
0.37495041 0.006078952 0.026046377
0.4249973 0.0059241736 0.02660712
0.37495273 0.0099781565 0.02612056
0.42499733 0.01001354 0.026610462
0.37495011 0.014004773 0.026076613
0.42499733 0.01410282 0.026613794
0.37494975 0.017967926 0.026100636
0.42499733 0.018192016 0.026617128
0.37495255 0.021930814 0.025993619
0.42499733 0.022025554 0.026620256
0.37503552 0.024596039 0.026117763
0.37825534 0.025047468 0.02616681
0.3820692 0.025047658 0.026079839
0.38600335 0.025047859 0.025845191
0.38997477 0.025048029 0.025946304
0.39396086 0.02504818 0.026212268
0.39790696 0.025048384 0.025977574
0.40185919 0.025048612 0.025743501
0.40593043 0.025048841 0.026189428
0.4098258 0.025049143 0.02611075
0.41378996 0.025049469 0.025876904
0.4176262 0.025049744 0.025955612
0.42188808 0.02505005 0.026097536
0.42476547 0.024687972 0.026142471
0.37500978 -0.02450637 0.02986956
0.37799904 -0.02488355 0.029957706
0.38207069 -0.024883289 0.029692227
0.38606781 -0.024883177 0.030386707
0.39014521 -0.024882914 0.03012052
0.39426541 -0.024882644 0.029861093
0.39821976 -0.024882477 0.030158717
0.40214729 -0.024882248 0.030060029
0.40607756 -0.024881974 0.029960696
0.41001064 -0.024881568 0.029860402
0.41396767 -0.024881216 0.030158605
0.41790691 -0.024880774 0.030058702
0.42183942 -0.024880251 0.029560249
0.42473793 -0.024534257 0.030027678
0.37495306 -0.022030549 0.029823545
0.42499703 -0.021952344 0.02999684
0.37495175 -0.017945779 0.029859247
0.42499715 -0.018028451 0.030057492
0.37495068 -0.014035499 0.029824393
0.42499721 -0.013975886 0.03006093
0.374953 -0.010030056 0.029845642
0.4249973 -0.010054553 0.03012157
0.374951 -0.0059411037 0.029749753
0.4249973 -0.0061248704 0.030067569
0.374957 -0.0020152086 0.029951399
0.4249973 -0.0020725748 0.030070869
0.37495995 0.0020188836 0.02994043
0.42499733 0.0019796332 0.030074142
0.37495667 0.0058655124 0.029903017
0.42499733 0.0060317549 0.030077405
0.37495959 0.0099419346 0.029926492
0.42499733 0.010083791 0.03008067
0.37495747 0.013995202 0.029889088
0.42499733 0.014135743 0.030083941
0.37494919 0.018081382 0.030069606
0.42499733 0.018187607 0.030087208
0.37495434 0.021882487 0.030244278
0.42499733 0.02212025 0.030147683
0.37501043 0.024625842 0.030272624
0.37769508 0.025047071 0.029824005
0.38190609 0.025047233 0.030124931
0.38594693 0.025047423 0.030078379
0.39002159 0.025047647 0.029712077
0.39409781 0.025047792 0.030156551
0.39805263 0.025047956 0.030257817
0.40214202 0.02504818 0.029891342
0.4060044 0.025048383 0.029816357
0.41004094 0.025048612 0.030255547
0.41397154 0.025048938 0.030026011
0.41790831 0.025049262 0.029797012
0.42179787 0.025049523 0.030051544
0.42471269 0.024782782 0.030044857
0.37502077 -0.024530966 0.033838451
0.37806213 -0.024884213 0.034102093
0.38226831 -0.024883932 0.033783343
0.38606834 -0.024883796 0.034248397
0.3899515 -0.024883572 0.034152307
0.39380503 -0.024883281 0.033665307
0.39767247 -0.024883145 0.03414201
0.40185416 -0.024882913 0.034095917
0.40610331 -0.024882656 0.033955768
0.41022423 -0.024882404 0.034002211
0.41413873 -0.02488203 0.034101725
0.418046 -0.024881598 0.03400464
0.42209435 -0.024881108 0.033735756
0.42480001 -0.024591463 0.033953246
0.3749564 -0.021936977 0.03375582
0.42499724 -0.022049688 0.034301065
0.3749536 -0.018098682 0.033805154
0.42499724 -0.018042719 0.034304421
0.37495393 -0.013994461 0.033776395
0.4249973 -0.014035837 0.034307774
0.37495682 -0.0099708894 0.033734839
0.4249973 -0.010029048 0.034311105
0.37495154 -0.0060024816 0.033800945
0.42499733 -0.0059416578 0.034381498
0.37495551 -0.0020580976 0.033683594
0.42499733 -0.0018495563 0.034317631
0.37495413 0.0020819521 0.033785895
0.42499733 0.0020146258 0.034168143
0.37495208 0.0060208458 0.033663619
0.42499733 0.0061373906 0.033484902
0.37495512 0.0099465651 0.033768583
0.42499733 0.010152771 0.033488102
0.37495351 0.014069729 0.033685371
0.42499733 0.014168068 0.033491302
0.37495601 0.018001037 0.033816718
0.42499733 0.018183278 0.033494506
0.37495825 0.021998053 0.034060568
0.42499736 0.022198409 0.03349771
0.37501401 0.02461097 0.034223203
0.37807271 0.02504668 0.033811618
0.38230184 0.025046835 0.034185853
0.3860558 0.025047014 0.034104016
0.38992929 0.025047213 0.033879384
0.39390159 0.025047386 0.033988334
0.39792743 0.025047557 0.034104474
0.40194649 0.025047747 0.034059864
0.40614912 0.02504796 0.033812739
0.41037488 0.025048137 0.03418785
0.41415012 0.025048414 0.034106094
0.41805381 0.025048735 0.033881295
0.42203715 0.025049023 0.033990789
0.42477503 0.024821596 0.033777636
0.37504745 -0.024551004 0.037959099
0.37793747 -0.024884809 0.037784539
0.38187781 -0.024884606 0.037894636
0.38591149 -0.02488444 0.038209829
0.39010888 -0.024884192 0.038073611
0.39429599 -0.024883913 0.037761141
0.39806002 -0.024883781 0.038220115
0.40192056 -0.02488355 0.038126729
0.40576139 -0.024883267 0.037648521
0.40979028 -0.024883121 0.03808995
0.41410306 -0.024882855 0.03813621
0.41818291 -0.0248824 0.03788678
0.42206651 -0.024882011 0.03798404
0.42479599 -0.024569316 0.038242806
0.37495479 -0.022061158 0.038020376
0.4249973 -0.02193667 0.038459644
0.37495556 -0.017949799 0.037838869
0.4249973 -0.017974442 0.038462918
0.37495744 -0.013924207 0.037950743
0.42499733 -0.014012303 0.038466156
0.37495312 -0.010017202 0.037840478
0.42499733 -0.010050257 0.038469285
0.374955 -0.0060660173 0.037934579
0.42499733 -0.0060882955 0.03847238
0.37495685 -0.0019367837 0.037864257
0.42499733 -0.0021264148 0.038475487
0.37495413 0.0019999575 0.037849229
0.42499733 0.0020450857 0.038203232
0.37495267 0.0059510851 0.037914231
0.42499733 0.005936543 0.037655212
0.37495768 0.0099664833 0.037892278
0.42499736 0.01006707 0.037722047
0.3749508 0.014086234 0.037927657
0.42499736 0.014207632 0.037661716
0.37494707 0.01803384 0.037975844
0.42499736 0.018177984 0.037664842
0.3749516 0.021896539 0.038027622
0.42499736 0.022148257 0.037667964
0.37501487 0.024575496 0.038182735
0.37793928 0.02504627 0.037794702
0.38188714 0.025046419 0.038060628
0.38586268 0.025046607 0.038018342
0.38998848 0.025046796 0.038020063
0.39403668 0.025047002 0.037808038
0.39806935 0.025047142 0.038243409
0.40192214 0.025047338 0.038024537
0.40578082 0.025047539 0.037804492
0.40989012 0.025047703 0.038027018
0.41416278 0.025047904 0.038183477
0.41819689 0.025048221 0.037898157
0.42194793 0.025048515 0.03781851
0.42480522 0.024769299 0.037893977
0.37499598 -0.024561223 0.041924801
0.3780261 -0.024885431 0.041715711
0.38203549 -0.024885291 0.042212293
0.38611004 -0.024885062 0.04216703
0.38989282 -0.024884779 0.041698746
0.39375138 -0.024884619 0.041984696
0.397982 -0.02488441 0.042150315
0.4021852 -0.024884148 0.041937314
0.40614757 -0.02488392 0.041867375
0.40987641 -0.024883758 0.042133771
0.41391814 -0.024883498 0.041889876
0.41819724 -0.024883231 0.041936476
0.42204025 -0.0248829 0.042158104
0.42482433 -0.024648407 0.041689117
0.37495735 -0.021917712 0.041991804
0.4249973 -0.022076823 0.041717615
0.3749567 -0.017941721 0.041971322
0.42499733 -0.018024078 0.041673426
0.37495697 -0.014039969 0.042036895
0.42499733 -0.013976575 0.041724086
0.37495148 -0.010054385 0.042129856
0.42499733 -0.009930755 0.041774716
0.37495142 -0.0059001562 0.042060219
0.42499733 -0.0058777751 0.04173037
0.37495193 -0.001959726 0.042145044
0.42499733 -0.0019509442 0.041733414
0.37494746 0.0019490474 0.042134523
0.42499736 0.0019758057 0.041736465
0.37495032 0.0059386687 0.042126779
0.42499736 0.0059024752 0.041739512
0.37495211 0.010001925 0.042062592
0.42499736 0.0098290639 0.041742563
0.37495187 0.01400569 0.0421931
0.42499736 0.014000974 0.041745797
0.37495229 0.017985411 0.042198621
0.42499736 0.018172797 0.041749038
0.37495765 0.021881284 0.042250164
0.42499736 0.022099134 0.041752078
0.37503061 0.024533827 0.042139336
0.37795272 0.025045855 0.041820768
0.38189229 0.025045991 0.042271018
0.38610649 0.0250462 0.042086367
0.38991535 0.025046399 0.041872386
0.39394274 0.025046594 0.041749656
0.39805824 0.025046723 0.042311851
0.40219733 0.025046948 0.041967116
0.40602425 0.025047148 0.04175273
0.40977085 0.025047274 0.042145923
0.41373122 0.025047461 0.042105343
0.41803035 0.025047708 0.041864973
0.42230126 0.025047997 0.041961815
0.42483494 0.024718078 0.041932207
0.37504762 -0.024486845 0.046026647
0.37800184 -0.024886133 0.046107411
0.38198107 -0.024885941 0.046236608
0.38592675 -0.024885641 0.045729224
0.39014888 -0.024885472 0.046082765
0.39411107 -0.024885256 0.046104044
0.39790434 -0.024885036 0.046016119
0.40199021 -0.02488479 0.045877337
0.40596804 -0.024884624 0.046194613
0.41007581 -0.024884347 0.045883026
0.41396153 -0.024884157 0.045992192
0.41776323 -0.024883943 0.045958843
0.42208168 -0.024883704 0.046170626
0.42488852 -0.02451531 0.04562854
0.37494957 -0.022061815 0.045935091
0.42499733 -0.021964947 0.045707252
0.37495252 -0.018059818 0.046183355
0.42499733 -0.017999787 0.045710508
0.37495142 -0.014060462 0.046163402
0.42499733 -0.013955057 0.045776498
0.37495616 -0.0099142734 0.046317223
0.42499736 -0.0099894861 0.045716453
0.37495875 -0.0059608105 0.04623469
0.42499736 -0.0060218871 0.045656223
0.37495586 -0.0020299312 0.046387136
0.42499736 -0.0019781319 0.045722775
0.3749564 0.0018666693 0.046281997
0.42499736 0.002063469 0.045788754
0.37495607 0.0060414448 0.046325859
0.42499736 0.0060315081 0.045728713
0.37495887 0.01002076 0.046246555
0.42499736 0.0099151852 0.04573169
0.37495565 0.014162535 0.046312194
0.42499736 0.014041502 0.045734849
0.37495422 0.018003866 0.046254594
0.42499736 0.018167732 0.045738012
0.37495816 0.021903133 0.046280522
0.42499736 0.022051161 0.045740981
0.37503102 0.024529563 0.046157558
0.3781234 0.025045434 0.046062462
0.38198268 0.025045594 0.046209369
0.38591006 0.025045799 0.045935877
0.39013013 0.025046004 0.045811988
0.39406878 0.025046153 0.046144508
0.39792073 0.025046332 0.046097487
0.4018684 0.025046542 0.045823473
0.4061422 0.025046721 0.045979068
0.41010633 0.025046883 0.046194676
0.41390726 0.025047071 0.045985263
0.41787547 0.025047285 0.045710731
0.42190292 0.025047425 0.046263341
0.42486411 0.024668049 0.045883913
0.37532002 -0.024474464 0.048828006
0.37791744 -0.024435645 0.048960101
0.38202697 -0.024499314 0.048961286
0.38600016 -0.024476033 0.048932958
0.38988933 -0.024458796 0.048970453
0.39396593 -0.024514675 0.04895347
0.39792225 -0.024491308 0.048951417
0.40192711 -0.024462448 0.048954375
0.40599093 -0.024498459 0.048954986
0.41001648 -0.024459267 0.048943013
0.41400442 -0.024540449 0.048959114
0.41804251 -0.024513807 0.048964407
0.42203531 -0.024493126 0.048942558
0.42456269 -0.024583153 0.048913904
0.3752943 -0.021951426 0.048804238
0.37797201 -0.021953732 0.048974663
0.38200402 -0.021964189 0.048979674
0.38602251 -0.021927245 0.048974529
0.38996503 -0.021979546 0.048977051
0.39392504 -0.021974638 0.048978351
0.39786053 -0.021945843 0.048977301
0.40194473 -0.021971297 0.04897429
0.40602356 -0.021986835 0.048977129
0.40998077 -0.02193325 0.0489765
0.41402769 -0.021981282 0.048976142
0.41805571 -0.021991108 0.048975434
0.4220193 -0.021956595 0.048976179
0.42456418 -0.021952808 0.048960611
0.37533593 -0.018013272 0.048891664
0.37795871 -0.018029863 0.048975553
0.38198653 -0.017948996 0.048978947
0.38604492 -0.017933194 0.04897606
0.3899858 -0.017961489 0.048978649
0.39392385 -0.017984595 0.048977096
0.3978903 -0.017926667 0.048977897
0.40194955 -0.017945763 0.04897327
0.40601712 -0.018039409 0.048977457
0.40997556 -0.017957229 0.048977949
0.41403177 -0.01793468 0.048977662
0.41805631 -0.018002821 0.048977911
0.42202356 -0.017938877 0.048975118
0.42454204 -0.017945521 0.048960492
0.37533623 -0.013963249 0.048905037
0.37794697 -0.013999474 0.048974909
0.38201195 -0.013955277 0.048979659
0.38599926 -0.013963029 0.048975971
0.38994148 -0.013964578 0.048978616
0.39392242 -0.013987529 0.048980389
0.39791751 -0.013937605 0.048975978
0.40199667 -0.013938616 0.048976362
0.40600181 -0.013955138 0.048976701
0.40997121 -0.014012659 0.048978113
0.41402209 -0.013934065 0.048976649
0.41807351 -0.013974952 0.04897714
0.42199758 -0.013973744 0.048977867
0.42455313 -0.01398333 0.048962455
0.3753342 -0.0099490397 0.048921328
0.37795421 -0.0099693518 0.04897574
0.38200039 -0.0099212015 0.048979729
0.38602951 -0.0099282442 0.048976045
0.38996574 -0.0099498006 0.0489797
0.3939195 -0.010017546 0.048978399
0.3979516 -0.0099827554 0.048975922
0.40199634 -0.0099225901 0.048977867
0.40602392 -0.0099338563 0.048979841
0.40996647 -0.010009976 0.048978183
0.41400453 -0.0099552115 0.048978269
0.41803569 -0.0099389097 0.048977919
0.42202592 -0.0099393465 0.048975937
0.42453909 -0.0099460082 0.048961319
0.37533158 -0.0059980629 0.048909858
0.37794456 -0.0059418343 0.048976485
0.38197413 -0.0059610102 0.048981968
0.38602316 -0.0058904621 0.048976693
0.38995761 -0.0059178364 0.048979145
0.39390659 -0.0059741382 0.048980325
0.39793372 -0.0059846863 0.048975434
0.40201846 -0.0059407032 0.04897787
0.40602094 -0.0059502632 0.048978623
0.40998518 -0.0059401961 0.048978753
0.41399628 -0.0059983698 0.048978761
0.41804394 -0.0059907748 0.04897856
0.42200667 -0.0059279036 0.048978973
0.42456195 -0.0059225485 0.048964042
0.37533149 -0.0020654926 0.048922163
0.37795654 -0.0019653765 0.048977125
0.38201237 -0.0019636599 0.048980124
0.38600329 -0.0019122288 0.048978414
0.38995659 -0.0018971341 0.048981246
0.39391416 -0.0020020367 0.048980366
0.39795053 -0.0019951181 0.04897745
0.40199998 -0.0019808011 0.048979901
0.40600002 -0.0019219833 0.048977811
0.40996337 -0.0018890514 0.048978727
0.41401821 -0.0019474549 0.048979823
0.41805238 -0.0019899237 0.048978485
0.42201203 -0.0019745182 0.048976853
0.42452365 -0.0019976529 0.048965994
0.37532625 0.0020598215 0.04890468
0.37793493 0.002054662 0.04897783
0.38198444 0.0020704987 0.048981875
0.38599962 0.0020826072 0.048976328
0.38995382 0.0021054 0.048980754
0.39389604 0.0019715421 0.048981126
0.39792117 0.0019815057 0.04897723
0.40200368 0.0019911802 0.048977878
0.40600878 0.0020535849 0.048980951
0.40997085 0.0020679752 0.048981193
0.41401106 0.002069748 0.048979919
0.4180688 0.0020526336 0.048979845
0.42200103 0.0020481956 0.048980098
0.42454726 0.0020614793 0.048964176
0.37532315 0.0060832207 0.048919287
0.37793583 0.006078572 0.048976764
0.38198569 0.0060916422 0.048981976
0.38601542 0.006106304 0.048979707
0.38995615 0.0061339452 0.048980407
0.39390668 0.006051016 0.048980527
0.39793074 0.0059975316 0.048976582
0.40198496 0.0060102525 0.048980076
0.40599626 0.0060378988 0.048979867
0.40996546 0.0060065622 0.048979968
0.41400334 0.0060297069 0.04897986
0.41802603 0.0060728043 0.048979014
0.42200556 0.0060573705 0.048978426
0.42453724 0.006098025 0.048966531
0.37532273 0.01012087 0.048911456
0.37793875 0.010069164 0.048979037
0.38198212 0.010094373 0.048982546
0.38599131 0.010085717 0.048978202
0.3899228 0.01012654 0.048983436
0.39392513 0.010077296 0.048983417
0.39792719 0.010042954 0.048979722
0.40199298 0.0099905469 0.048981175
0.40599653 0.009964142 0.048982017
0.40994933 0.010008598 0.048980948
0.41399333 0.010006336 0.048980024
0.4180463 0.010038509 0.048981428
0.42199558 0.01003708 0.048980605
0.42452967 0.010030961 0.048967782
0.37532365 0.014095264 0.048909802
0.37792778 0.014090062 0.048977658
0.38197854 0.014088683 0.048982766
0.38601014 0.014092742 0.048978753
0.38995388 0.014095034 0.04898065
0.39390361 0.014110382 0.048981532
0.39793688 0.014081227 0.04897739
0.40199393 0.014018183 0.048979983
0.40599033 0.014032546 0.048979864
0.40995827 0.014058523 0.048981622
0.41399854 0.014048542 0.048982017
0.41802892 0.014072076 0.048980627
0.42199245 0.014033769 0.048979823
0.42454213 0.014154334 0.048968684
0.37531912 0.018118532 0.048913945
0.37792233 0.018081795 0.048980393
0.38198265 0.018123256 0.048983727
0.38601196 0.018112792 0.048980579
0.38994879 0.01812725 0.048983496
0.39389542 0.018100463 0.048982751
0.3979125 0.018120766 0.048979249
0.4019891 0.018121701 0.048981037
0.4060114 0.018112652 0.048982371
0.40995792 0.018135626 0.048981406
0.41398752 0.01811344 0.048980825
0.41804525 0.018136181 0.048981536
0.42200384 0.018122524 0.048980433
0.42451841 0.01816044 0.048968319
0.37530887 0.022016713 0.048909742
0.37791249 0.02209538 0.048980206
0.38196549 0.02208874 0.048984513
0.38598451 0.022093862 0.048980109
0.38993096 0.022080816 0.048982944
0.39389136 0.022118371 0.048984036
0.39792702 0.022088911 0.04897939
0.40199026 0.022057291 0.048983093
0.40598443 0.022097221 0.048982669
0.40993881 0.022060284 0.048983753
0.41401541 0.022018576 0.048983045
0.41803974 0.022030184 0.04898154
0.42199984 0.022021255 0.048981339
0.42453316 0.022023367 0.048969176
0.37532187 0.024578258 0.04886492
0.37797591 0.024605023 0.048947129
0.38199636 0.02462149 0.048957471
0.38602677 0.024604008 0.048955135
0.38995489 0.024617998 0.048927613
0.3939172 0.024624299 0.048959605
0.39792222 0.024605347 0.048950274
0.40194342 0.024542794 0.048951659
0.40599367 0.024546374 0.048949745
0.41003081 0.024526918 0.048962254
0.41396412 0.024502978 0.048950713
0.41799614 0.024502622 0.048948176
0.42200559 0.024486355 0.048962444
0.42453507 0.024456961 0.04897042
