# .PCD v0.7 - Point Cloud Data file format
VERSION 0.7
FIELDS x y z
SIZE 4 4 4
TYPE F F F
COUNT 1 1 1
WIDTH 972
HEIGHT 1
VIEWPOINT 0 0 0 1 0 0 0
POINTS 972
DATA ascii
0.38372302 -0.036443211 0.0028226888
0.38658714 -0.036873333 0.0030382001
0.38994682 -0.037911005 0.0028725564
0.39403999 -0.038683902 0.0030877416
0.39764547 -0.039142542 0.0029672678
0.4019458 -0.039070707 0.0031556902
0.40622932 -0.038570613 0.00298922
0.40988657 -0.037803907 0.0030983982
0.41367468 -0.036737375 0.003009595
0.41655391 -0.036218178 0.0022598878
0.37840867 -0.033157237 0.0028657499
0.38173562 -0.034804128 0.0029952067
0.38481477 -0.035905071 0.0030677048
0.41546199 -0.035697807 0.0032507225
0.41833332 -0.034396805 0.0031382663
0.42133865 -0.032790698 0.0030624531
0.37166959 -0.028189529 0.0027254331
0.37415886 -0.030047964 0.0030061328
0.37692174 -0.031364407 0.0028156179
0.38755485 -0.028268779 0.0020281856
0.39034736 -0.028691627 0.0020280713
0.39410996 -0.029250361 0.0020279069
0.39804107 -0.029598959 0.002027767
0.40205079 -0.029700801 0.0020276774
0.40601891 -0.029574562 0.0020276525
0.40999281 -0.029306713 0.0020276669
0.41380367 -0.028872738 0.0020276934
0.41750428 -0.028335543 0.0020277193
0.42301673 -0.031476058 0.0028770273
0.42543387 -0.029567331 0.0030378837
0.37008846 -0.025705745 0.0028189234
0.37378806 -0.026137594 0.0020828182
0.37784514 -0.025254773 0.0020022192
0.38224381 -0.024970658 0.0020267994
0.38615838 -0.025930706 0.0020287361
0.38997972 -0.025903948 0.0020286636
0.39400172 -0.025961326 0.0020285975
0.39796466 -0.026112126 0.0020285053
0.40197068 -0.025994709 0.0020284667
0.40595758 -0.025987796 0.0020284152
0.40999937 -0.026033521 0.002028354
0.41409534 -0.025946811 0.0020282911
0.41797101 -0.025947571 0.0020282189
0.42176741 -0.025279401 0.0020283265
0.42721456 -0.027098006 0.0028562853
0.42962766 -0.025394358 0.0030204104
0.36688328 -0.021759594 0.0028923708
0.36962882 -0.022276431 0.0022055937
0.374053 -0.021973273 0.0020031231
0.37810165 -0.021903645 0.0020132745
0.38196471 -0.022007151 0.0020140947
0.38593566 -0.021726489 0.00201843
0.38984784 -0.021645285 0.0020219651
0.39398763 -0.022109278 0.0020294159
0.39807153 -0.021988878 0.0020293847
0.40203288 -0.021912435 0.0020293354
0.40599996 -0.022062087 0.0020292499
0.41002554 -0.022008721 0.0020292026
0.41387537 -0.02195487 0.0020291281
0.41791376 -0.022020254 0.002029069
0.42195734 -0.022066208 0.0020290252
0.42589238 -0.021820767 0.0020290089
0.43068951 -0.022403046 0.0026274673
0.43287176 -0.021152291 0.0029110853
0.36363831 -0.016647307 0.0030264102
0.36561525 -0.018213598 0.002610632
0.37008128 -0.01788941 0.0020048707
0.37406406 -0.017928021 0.0020147553
0.37800035 -0.018074427 0.0020174563
0.3819938 -0.018001642 0.0020159844
0.38603571 -0.017989751 0.002016675
0.39003938 -0.018063763 0.0020151499
0.39397046 -0.017964354 0.0020180484
0.39790338 -0.017688964 0.0020219567
0.40194863 -0.018064892 0.0020301538
0.4060103 -0.01804038 0.0020301084
0.40998754 -0.0178908 0.0020300644
0.41404226 -0.018008577 0.0020299798
0.41803163 -0.018022476 0.0020299365
0.42198834 -0.018032661 0.0020298674
0.42589727 -0.017901078 0.0020298311
0.42982623 -0.017985802 0.0020297545
0.43417177 -0.017956443 0.0028565843
0.43625522 -0.016766947 0.0027904436
0.36284411 -0.013791852 0.0029530127
0.36585301 -0.014013869 0.0020638399
0.37010071 -0.013876834 0.0020150205
0.37400949 -0.013999143 0.0020154344
0.37798035 -0.013999119 0.0020166158
0.38200009 -0.01398052 0.0020148603
0.38599464 -0.014053119 0.00201603
0.39005089 -0.014049776 0.002015234
0.39408383 -0.0139603 0.0020157276
0.39809799 -0.014028866 0.0020141569
0.40208653 -0.014004966 0.0020161809
0.40586153 -0.013692643 0.0020194249
0.40974274 -0.013698858 0.002025458
0.41396227 -0.014099516 0.0020308238
0.41812393 -0.013963406 0.0020307866
0.42209128 -0.013951597 0.002030727
0.42608479 -0.013964305 0.0020306748
0.43006492 -0.014111793 0.0020305905
0.43429694 -0.014191603 0.0022764413
0.43661323 -0.013607934 0.0028793649
0.36190024 -0.0099536814 0.0028248851
0.36621007 -0.009839125 0.0020110561
0.36998877 -0.0099867927 0.0020189984
0.37391058 -0.0099936249 0.0020174889
0.37796196 -0.0099992547 0.0020189271
0.38202155 -0.0099975923 0.0020169215
0.38602456 -0.0099966656 0.0020186347
0.39001045 -0.0099736964 0.0020168608
0.39403576 -0.010016056 0.0020178182
0.39807293 -0.010045086 0.0020165178
0.40203905 -0.010005735 0.00201803
0.40593916 -0.0099580465 0.0020176459
0.40997654 -0.010059242 0.0020157909
0.41394207 -0.0098462608 0.0020197202
0.41779587 -0.0097423969 0.0020255081
0.42194209 -0.010036136 0.0020315677
0.42604497 -0.010009275 0.0020315161
0.43005791 -0.0099925594 0.0020314523
0.43407863 -0.0099638933 0.0020313766
0.4375248 -0.010025969 0.002766832
0.36128733 -0.0058984151 0.0026877353
0.36603075 -0.0059125698 0.0020161881
0.36993518 -0.0059219664 0.0020188917
0.37398717 -0.0059700324 0.0020166175
0.37798926 -0.0059824567 0.0020178026
0.38197303 -0.0059858826 0.0020167704
0.38599864 -0.0059591476 0.0020179872
0.390064 -0.0059580482 0.0020159266
0.3940835 -0.005988433 0.0020174081
0.3980653 -0.0059654708 0.0020160978
0.4020983 -0.0059721703 0.00201683
0.40592408 -0.0060352078 0.0020166652
0.40997696 -0.0060219052 0.0020156051
0.41400385 -0.0059168283 0.002016658
0.41805014 -0.0060097622 0.0020147553
0.42202023 -0.0058644596 0.0020175239
0.42581937 -0.0056374352 0.0020221027
0.42975965 -0.0057231681 0.0020283849
0.43390685 -0.0060577625 0.0020321889
0.43809608 -0.0060134376 0.0026516803
0.35997805 -0.0007615069 0.0034732816
0.3614091 -0.0019721033 0.0025645879
0.36596251 -0.0019367605 0.0020192638
0.3699325 -0.0019420785 0.0020199565
0.37395614 -0.0020113571 0.0020191805
0.37801695 -0.001913436 0.0020206575
0.38202411 -0.0019361207 0.0020183749
0.3860254 -0.0019466027 0.0020196049
0.39003021 -0.0019823194 0.002018298
0.3939901 -0.0019509271 0.0020198026
0.39807943 -0.0019181129 0.0020179856
0.40211797 -0.0019824561 0.0020189772
0.40599108 -0.0019895202 0.002019359
0.40996158 -0.0019593283 0.0020175194
0.41395697 -0.0019630871 0.0020182577
0.41797677 -0.0020295412 0.0020171823
0.42202437 -0.0019538554 0.0020190335
0.42606851 -0.0019192272 0.0020171737
0.4300923 -0.0019670862 0.0020179513
0.43394715 -0.0018507492 0.0020213707
0.43833801 -0.0018809201 0.0026187089
0.35996389 0.0009469862 0.0032889494
0.36167374 0.0022358424 0.0024368139
0.36593622 0.0020958208 0.0020188468
0.37002149 0.0020422356 0.0020197928
0.37399089 0.0020740102 0.0020185073
0.37795731 0.0021015038 0.00201896
0.38195625 0.0020433357 0.0020179206
0.38604054 0.0020933996 0.0020196715
0.3900466 0.0020776822 0.0020175946
0.39407116 0.0021010134 0.002018587
0.39807919 0.0020385855 0.0020169918
0.40209973 0.0020339591 0.002018793
0.40589797 0.002076966 0.0020183946
0.4099645 0.0020931526 0.0020167795
0.41404533 0.0020335054 0.0020180687
0.4180457 0.0020633589 0.0020167013
0.42203802 0.0020920245 0.0020172033
0.42603791 0.00206111 0.0020158363
0.43007672 0.0020180456 0.0020174466
0.43393683 0.0020256215 0.0020178391
0.43810704 0.0020405876 0.0024507132
0.36159638 0.0059563578 0.0025423286
0.3659558 0.0061078598 0.0020206629
0.36988586 0.0060587041 0.002022136
0.37396136 0.0061297808 0.0020206119
0.37801933 0.0060378751 0.0020213311
0.38202608 0.0061090202 0.0020203053
0.38596061 0.0061021601 0.0020210498
0.38999206 0.0060782069 0.0020197311
0.39405328 0.0060676271 0.0020210047
0.39810073 0.0060852659 0.0020196799
0.40208408 0.0061084856 0.0020207202
0.40595126 0.0060707363 0.0020202962
0.40992317 0.0060475785 0.0020183877
0.41390005 0.0060667475 0.0020205409
0.41797492 0.0061239139 0.0020186442
0.4220534 0.0060594757 0.0020199688
0.42613706 0.0060830284 0.0020183118
0.43008852 0.0060714362 0.0020196647
0.43393287 0.0061113327 0.0020192515
0.4378837 0.0060409876 0.0025215014
0.36210048 0.0099698827 0.0026731216
0.365951 0.0099750096 0.0020216173
0.37000343 0.0099344198 0.002022339
0.37395063 0.009894629 0.0020205113
0.37794352 0.0099046743 0.0020228061
0.38199025 0.0099932998 0.0020210098
0.38605136 0.009913615 0.0020217451
0.39005229 0.0099055255 0.002020153
0.39403343 0.0099106273 0.0020219744
0.39804041 0.0099434564 0.0020201104
0.40206802 0.0099304197 0.0020211514
0.4059439 0.0099112447 0.0020212736
0.40999353 0.0099194255 0.0020201646
0.4140161 0.0099549694 0.0020207074
0.41799641 0.0099122981 0.0020187588
0.4220235 0.0098888194 0.0020209553
0.42604983 0.0099653387 0.0020193099
0.43013659 0.0099518029 0.0020203965
0.43403202 0.0099308193 0.0020199551
0.43737173 0.0099274106 0.002639734
0.36283493 0.013821144 0.0029271031
0.36587596 0.013944625 0.0020499469
0.3699443 0.013943737 0.002022176
0.3739872 0.01394995 0.0020210934
0.37801945 0.013972291 0.0020213546
0.3819809 0.013936028 0.0020194754
0.3859905 0.013913848 0.002021556
0.39001328 0.013956836 0.002020221
0.39405766 0.013974125 0.0020209933
0.39810416 0.013951044 0.0020190841
0.40211061 0.013923706 0.0020206752
0.40588832 0.013959775 0.0020207998
0.40992045 0.01394604 0.0020188675
0.41400406 0.013962289 0.0020201975
0.4180809 0.013939618 0.0020188
0.42207351 0.01397168 0.0020198997
0.42608494 0.013965589 0.0020176421
0.43006849 0.013941803 0.0020193015
0.4341718 0.01411384 0.002150072
0.43670729 0.013310705 0.002724688
0.36364698 0.016771967 0.0031759173
0.36588973 0.018112184 0.0024525509
0.36992943 0.018010302 0.0020240843
0.37391961 0.017970661 0.0020222275
0.37794805 0.017957812 0.0020237691
0.38204059 0.017970691 0.0020226906
0.38603935 0.017992539 0.0020235027
0.39001885 0.017990245 0.0020213316
0.39401239 0.017929526 0.0020231667
0.39808127 0.017982697 0.0020218149
0.40208131 0.017999841 0.0020231684
0.40598047 0.018017398 0.0020224859
0.40997803 0.017945061 0.0020208012
0.41398421 0.01798714 0.0020224412
0.41793594 0.01798377 0.0020207579
0.42200699 0.018006558 0.0020221467
0.42609614 0.017950524 0.0020204487
0.43016687 0.018006081 0.0020221393
0.43398669 0.017923756 0.0025309075
0.43639433 0.016558258 0.0030753885
0.36689174 0.021693038 0.0027964106
0.36988613 0.022051016 0.0021597364
0.37397546 0.021975724 0.0020217574
0.37799627 0.021986065 0.0020230501
0.3819319 0.021985885 0.002021451
0.38598064 0.022006694 0.0020227698
0.39004138 0.021958709 0.0020211041
0.39409128 0.022008931 0.0020226757
0.39804792 0.022008708 0.0020204976
0.40203786 0.022016995 0.0020218501
0.40589073 0.021942634 0.0020219733
0.40997249 0.022019982 0.0020208389
0.41400602 0.022037251 0.0020216536
0.41804609 0.022006249 0.0020196566
0.42203477 0.021977862 0.0020207288
0.42603201 0.022014886 0.0020198929
0.43021598 0.022190508 0.0022467971
0.43286103 0.021189282 0.0027315512
0.3700594 0.025544235 0.0027891989
0.37388697 0.026061993 0.002092018
0.37795696 0.026006047 0.0020252503
0.3820073 0.026027761 0.0020236608
0.38603118 0.026003536 0.0020246841
0.39000186 0.025975823 0.0020238149
0.39401507 0.026064748 0.0020246278
0.39808577 0.026012801 0.0020229849
0.40212575 0.025996787 0.0020240778
0.40594813 0.025998846 0.0020245011
0.40991119 0.026077179 0.0020222722
0.41391653 0.026009301 0.0020236243
0.41797364 0.025999565 0.0020221972
0.42206681 0.026043978 0.0020244049
0.42620286 0.026168469 0.0021296791
0.42938769 0.025640087 0.0026333199
0.37154084 0.028107677 0.0027455343
0.37433448 0.029716503 0.0027268219
0.37793395 0.030001858 0.0020948208
0.38198772 0.030015441 0.0020231472
0.38601813 0.030057695 0.0020247209
0.39007497 0.030054836 0.0020222317
0.39404529 0.030027922 0.0020232624
0.39803708 0.030038387 0.0020221914
0.40205085 0.030022608 0.0020243663
0.40595639 0.030073585 0.0020234261
0.40999439 0.030066151 0.0020214408
0.41401219 0.029999968 0.0020228054
0.41799155 0.030076567 0.0020216578
0.42208478 0.030165138 0.00216506
0.42544264 0.029360304 0.0026134136
0.42810813 0.028461128 0.0025662719
0.37841985 0.033120416 0.0026926403
0.3819741 0.034021609 0.0023521995
0.3859058 0.034103245 0.0020583638
0.3900049 0.034036346 0.0020247118
0.3940694 0.034013428 0.0020263412
0.39807242 0.034109317 0.0020247195
0.40208822 0.034085099 0.0020252529
0.40588394 0.03405593 0.0020254054
0.40992221 0.034066759 0.0020242655
0.41403636 0.034107901 0.0020527032
0.41792023 0.033873487 0.002365852
0.42141631 0.032850981 0.0028505863
0.38327199 0.036319345 0.0030776956
0.38641697 0.036901545 0.0027512035
0.3900781 0.037435036 0.0024432333
0.3939864 0.037855119 0.0023509024
0.3980504 0.037864458 0.002248894
0.40209392 0.037882015 0.0022414641
0.40595895 0.037684873 0.0022852204
0.40981975 0.037308775 0.0024092086
0.4135958 0.03680842 0.0027015735
0.41685778 0.036263548 0.003320341
0.38306451 -0.036215585 0.0059100399
0.38610467 -0.036876831 0.0060380604
0.38995019 -0.037874673 0.0059975684
0.39398021 -0.038671199 0.0060270191
0.39814505 -0.039080042 0.0061674151
0.40209147 -0.03904888 0.0060316431
0.40596187 -0.03867827 0.0060446314
0.40997919 -0.037770122 0.006003934
0.41361114 -0.036686938 0.0060769483
0.41666347 -0.036165841 0.0056528207
0.37598822 -0.032027643 0.0068981713
0.37816304 -0.033030692 0.005946402
0.38177201 -0.0347597 0.0059364298
0.38446814 -0.035728015 0.0062422776
0.4153434 -0.035766784 0.006347043
0.41806221 -0.034511231 0.0061355433
0.4212229 -0.032830574 0.0059773354
0.37182361 -0.028360959 0.0064456011
0.37409696 -0.029842053 0.0059572528
0.37688625 -0.031400859 0.0060630077
0.42303351 -0.031375777 0.006114929
0.42565352 -0.029455131 0.0060002888
0.4283115 -0.028131535 0.0051648691
0.37005168 -0.025926381 0.0059817531
0.37238577 -0.02745831 0.0055975737
0.42762083 -0.027391307 0.0060117524
0.42951438 -0.025619002 0.0059843073
0.36677617 -0.021787057 0.005933743
0.36861405 -0.023065357 0.0059544714
0.43132904 -0.023058051 0.0060663833
0.43284956 -0.021265885 0.0059767403
0.36366865 -0.016723152 0.0057834503
0.36503145 -0.01836911 0.0059535583
0.43460816 -0.017969877 0.0060274377
0.4363682 -0.016537396 0.0053911339
0.36274916 -0.013853712 0.0060937344
0.36420417 -0.015335573 0.0059085023
0.43577823 -0.015303054 0.005946978
0.43669763 -0.013546842 0.0060112244
0.36164293 -0.010016102 0.0060080299
0.43773463 -0.009991819 0.0059946338
0.36073101 -0.0059549492 0.006072015
0.43863404 -0.0060574524 0.0059528938
0.35997656 -0.00067608722 0.0055460944
0.36038938 -0.0020210086 0.0058360132
0.4390448 -0.0020734405 0.0059085186
0.35996935 0.00074294698 0.006091869
0.36047363 0.0025068612 0.0058985134
0.43907851 0.0018772364 0.0059663202
0.36074176 0.0060221911 0.0060121925
0.43859565 0.0060816556 0.0059429943
0.3616074 0.010115847 0.0059782704
0.43781427 0.010067111 0.0061119045
0.36277473 0.013949533 0.0060901931
0.36423203 0.015586412 0.0058205565
0.43582699 0.015192787 0.005930448
0.43679127 0.013524097 0.0060128947
0.36362532 0.016719598 0.0059793801
0.36502552 0.018550849 0.0059793629
0.43469298 0.017962582 0.0060703079
0.43638873 0.016569259 0.0062810662
0.3667942 0.021884505 0.0059919413
0.36865073 0.023207663 0.0062480601
0.4312757 0.023213498 0.0058470936
0.43291751 0.021281295 0.0059749279
0.36989728 0.025917372 0.005955603
0.37232056 0.027503168 0.0062394673
0.42755821 0.027535884 0.0061407532
0.42953557 0.025805037 0.0060390178
0.3718448 0.028398972 0.0060370225
0.3740485 0.030006247 0.0060445056
0.37675622 0.031476624 0.0058048815
0.42312261 0.031425614 0.0058593275
0.42572504 0.029558638 0.0060395091
0.4281919 0.028373593 0.0058850981
0.37823042 0.033180881 0.0059281723
0.38166317 0.035016831 0.0060312441
0.38444248 0.035833601 0.0064596846
0.41549769 0.035802092 0.0060025556
0.41820925 0.034669518 0.0059841773
0.42130032 0.033027731 0.0060823439
0.38336292 0.03636428 0.006010456
0.38616249 0.037107296 0.0060418895
0.39009953 0.038222793 0.0061358977
0.39391461 0.0389461 0.0058867852
0.39830408 0.039344613 0.0063858829
0.40190005 0.039332889 0.0061984006
0.40613577 0.038877405 0.0060921167
0.41002715 0.038096998 0.0061417921
0.4136146 0.037014343 0.0060837138
0.4166826 0.036334146 0.0058626374
0.38357297 -0.036383029 0.010434826
0.38635015 -0.036882818 0.010002143
0.38992903 -0.037896294 0.010019424
0.39396441 -0.038673658 0.010124989
0.39794165 -0.039089318 0.0098385066
0.40214828 -0.03905255 0.010025143
0.40590152 -0.038679224 0.0097792801
0.41020292 -0.037714671 0.010039405
0.41352344 -0.036634617 0.010025699
0.41680744 -0.036097065 0.010110649
0.37841192 -0.033179425 0.010055482
0.38176504 -0.034833547 0.0099256495
0.38446695 -0.035711776 0.0099623976
0.4154574 -0.035719059 0.010165978
0.41804463 -0.034549121 0.0099693201
0.42115057 -0.0329092 0.0098435339
0.37163574 -0.028157977 0.010291154
0.3741321 -0.029898558 0.010069747
0.37684816 -0.031305391 0.010183433
0.42316052 -0.031279307 0.0099935029
0.42566511 -0.029506143 0.0099040596
0.4280858 -0.028348846 0.010283675
0.36994538 -0.025775397 0.0099700419
0.37248078 -0.027550001 0.010206241
0.42743075 -0.027590744 0.010154682
0.42949635 -0.025632843 0.0099052275
0.36676154 -0.021700541 0.010000794
0.36862433 -0.02317857 0.010181846
0.431301 -0.023099909 0.010046614
0.43282205 -0.021274125 0.0099849673
0.36369643 -0.016772918 0.010063565
0.36501312 -0.0183508 0.0099608358
0.43452826 -0.018135523 0.010046225
0.43626007 -0.016787698 0.0098427944
0.3627902 -0.013896191 0.010007585
0.36426234 -0.015479281 0.0099421451
0.4356699 -0.015558816 0.010111521
0.43664113 -0.013651174 0.010045002
0.36159557 -0.010046908 0.0099967849
0.43777323 -0.0099814814 0.0098999599
0.36078256 -0.0059968852 0.010059336
0.43859997 -0.00601744 0.010060735
0.35996398 -0.0012953335 0.009468277
0.36037627 -0.0020214319 0.0099472487
0.43901294 -0.0020179569 0.0098983822
0.35997236 0.00078022259 0.0099369641
0.36047703 0.0024224846 0.0099370619
0.43901753 0.0020581179 0.010032759
0.36078507 0.006135988 0.010048833
0.43862146 0.0060085822 0.009918672
0.36158526 0.010014522 0.010026672
0.43780112 0.010107712 0.010074592
0.36270362 0.013785858 0.010007383
0.36423224 0.015574143 0.0099885883
0.43582261 0.015205268 0.0099159973
0.43678838 0.013496546 0.010048098
0.36362442 0.016719485 0.010003233
0.36500445 0.01850302 0.010081246
0.43468827 0.017911443 0.010037962
0.43638143 0.016583668 0.010479879
0.36676398 0.021836704 0.0099719763
0.36863646 0.0231962 0.010179378
0.43125543 0.023301603 0.010074558
0.43290579 0.021307625 0.0099516502
0.36996329 0.025973711 0.009965457
0.37247092 0.027662072 0.010608999
0.42757761 0.02750407 0.010057057
0.42960262 0.025723279 0.010029956
0.37191427 0.028464213 0.0099540558
0.37409946 0.030064024 0.010106439
0.37659943 0.031267148 0.010024668
0.42324221 0.031282131 0.010123867
0.42573696 0.029615454 0.0099972226
0.42830151 0.028259017 0.010229276
0.37809128 0.033111971 0.010016235
0.38157418 0.034980919 0.01018026
0.38455844 0.035851765 0.0098153092
0.41578782 0.035672262 0.010304264
0.41814455 0.034700796 0.010099726
0.42141795 0.032909557 0.0099797854
0.38346064 0.036407299 0.010244605
0.3860833 0.037074842 0.01003646
0.39008313 0.038255505 0.01003961
0.39386463 0.038931601 0.01002423
0.3977651 0.039329167 0.010176745
0.40210736 0.039268583 0.0096953334
0.40623423 0.038901456 0.010015045
0.41031757 0.037996601 0.010147805
0.41400227 0.036781173 0.01020718
0.41666761 0.036353543 0.0097442754
0.38302389 -0.036199342 0.014282547
0.38603356 -0.036854561 0.014044259
0.39002961 -0.037917197 0.014120843
0.39398766 -0.038641311 0.014007481
0.39792544 -0.039050128 0.01374897
0.40180534 -0.039068785 0.014227485
0.40611336 -0.038613204 0.01399379
0.40999451 -0.037761804 0.014094192
0.41349092 -0.036696035 0.013860396
0.41694891 -0.036029451 0.014490925
0.37818626 -0.032981675 0.013997286
0.38169593 -0.034723934 0.014033287
0.38454011 -0.035758905 0.013971514
0.41529801 -0.035785194 0.014211198
0.41804615 -0.034537919 0.01385376
0.4211852 -0.032869563 0.013993147
0.37187979 -0.028394118 0.014681089
0.37407726 -0.029919079 0.01402578
0.37682545 -0.031358566 0.013943138
0.42309186 -0.031370759 0.014044774
0.42557678 -0.029503157 0.013995431
0.37006953 -0.025945004 0.013949011
0.3724941 -0.027576996 0.014572589
0.42755118 -0.027471667 0.013918304
0.42946059 -0.025707262 0.013909723
0.36683932 -0.021829138 0.014042941
0.36865973 -0.023132822 0.014269765
0.43125868 -0.023207158 0.013853792
0.43278462 -0.021315036 0.014034625
0.36364532 -0.016660469 0.014006281
0.36507803 -0.018438438 0.013993273
0.43449438 -0.018145988 0.014022005
0.43631786 -0.016650146 0.01462085
0.36277986 -0.013812012 0.014005043
0.36418647 -0.015290529 0.014079268
0.43574974 -0.015398366 0.014106244
0.43670455 -0.013523393 0.013928976
0.3616125 -0.0099934731 0.014024647
0.4377633 -0.010060005 0.014013735
0.3607851 -0.0060323011 0.013976786
0.43862391 -0.0060213814 0.014088193
0.35996965 -0.00085230812 0.014451344
0.36040246 -0.0022378571 0.01387682
0.43902335 -0.0020271195 0.013884725
0.35997021 0.00078473322 0.014120172
0.36049584 0.0024582683 0.013815742
0.43899456 0.0019923912 0.0139851
0.3607437 0.0060669654 0.013996611
0.43865958 0.0059309215 0.013953392
0.36164409 0.010066277 0.014032247
0.43780056 0.010050407 0.014040369
0.36274725 0.013916753 0.013964151
0.36423728 0.015583607 0.014066647
0.43585011 0.015134494 0.014163893
0.43677801 0.013599067 0.01398542
0.36363181 0.016732277 0.014088493
0.36500216 0.018539691 0.014081917
0.43466103 0.018023629 0.013898701
0.43642506 0.016492959 0.014307672
0.36672673 0.021794975 0.01400927
0.36860946 0.023163553 0.014049067
0.43121547 0.023305831 0.014019621
0.43287662 0.021429552 0.013996955
0.36987492 0.025875082 0.01399379
0.3723793 0.027565856 0.014658135
0.42759174 0.027519977 0.013911183
0.42955169 0.025813868 0.014077878
0.37181985 0.028372336 0.013824738
0.37403035 0.0300264 0.014082509
0.37683997 0.031430114 0.013993468
0.42316198 0.031329259 0.013955023
0.42579797 0.02955381 0.014085951
0.42840868 0.028146932 0.014478944
0.37824112 0.033277065 0.014160326
0.381717 0.034956101 0.013989138
0.38441798 0.035801757 0.013300911
0.41536972 0.035845041 0.014464085
0.41805485 0.034686085 0.014094455
0.42141512 0.032958828 0.014017216
0.38328838 0.036317904 0.014436519
0.38599351 0.037055828 0.01411138
0.38982618 0.038193233 0.01402013
0.39424098 0.038996425 0.013969607
0.39778489 0.039357744 0.014065101
0.40194169 0.039356742 0.014067295
0.40601772 0.038914517 0.013947006
0.41020244 0.03796367 0.014180944
0.41364187 0.03680392 0.013987526
0.41691726 0.036223717 0.013958447
0.38349655 -0.036342409 0.018182965
0.38633248 -0.036888629 0.018004153
0.38990083 -0.037874363 0.018056341
0.39396244 -0.038699515 0.018020671
0.39813435 -0.039092593 0.017896755
0.40212139 -0.039068721 0.01841395
0.40602362 -0.038582701 0.018116325
0.41015422 -0.037724242 0.017998725
0.41366169 -0.036635913 0.018187877
0.37841442 -0.03316116 0.01792872
0.38181773 -0.034861069 0.018004719
0.38452169 -0.035749599 0.018031428
0.41545576 -0.035719298 0.017901944
0.41806191 -0.034586627 0.017913759
0.42123282 -0.032811165 0.018103508
0.37170476 -0.028246822 0.017838517
0.3741374 -0.029918926 0.017904719
0.37696716 -0.031406675 0.017821498
0.42310417 -0.031325944 0.0179663
0.42564633 -0.029468207 0.018046949
0.42831421 -0.028130211 0.018737914
0.36995843 -0.025773097 0.017956745
0.3725192 -0.027577698 0.017981431
0.42755404 -0.027450826 0.017553367
0.42962202 -0.025495699 0.018022055
0.36674792 -0.021683026 0.018024396
0.36865592 -0.023226064 0.017933842
0.43133858 -0.023056826 0.017891672
0.43281245 -0.021331312 0.018067902
0.3636547 -0.016678136 0.018000079
0.3650068 -0.01836203 0.018068513
0.43458676 -0.018000804 0.018001262
0.43632567 -0.016647935 0.018031148
0.36275277 -0.013864585 0.018026322
0.36421812 -0.01537248 0.018107103
0.43579483 -0.015292116 0.017933007
0.43672201 -0.013471186 0.017880697
0.3616325 -0.010008792 0.018011957
0.43779692 -0.0099650146 0.018077908
0.36077827 -0.0059745237 0.017994003
0.43861142 -0.0059869401 0.017968474
0.35997975 -0.00060314534 0.0181881
0.36036628 -0.002150473 0.01794968
0.43903708 -0.0020172128 0.018061735
0.35996529 0.00071508583 0.01807105
0.36040425 0.0024646437 0.017952643
0.43905273 0.0019763319 0.018024907
0.36075723 0.0059908698 0.017956499
0.43865347 0.0060375701 0.01793758
0.36153865 0.0098949 0.018055668
0.43782371 0.0099890344 0.018086541
0.36271924 0.013778452 0.017954119
0.36424804 0.015616908 0.018096656
0.43582636 0.015214521 0.018084645
0.43679491 0.013522902 0.017994383
0.36365497 0.016778126 0.017958922
0.36503524 0.018526247 0.018074349
0.43466705 0.017994529 0.017921211
0.43636799 0.016610198 0.017949991
0.36677262 0.021860294 0.018071143
0.36859724 0.023151031 0.01782826
0.43129432 0.023200165 0.017914889
0.43288809 0.021388097 0.018081557
0.36992756 0.025916293 0.017963311
0.3724207 0.027607352 0.018366361
0.42759958 0.027490554 0.017940925
0.42961994 0.025677038 0.018064665
0.37182921 0.028395688 0.018118434
0.37410319 0.030011987 0.018055301
0.37685576 0.031452652 0.017824652
0.42323995 0.031282235 0.018083267
0.42579713 0.029567193 0.017928662
0.4283556 0.02820147 0.019024989
0.37823564 0.033210892 0.018187571
0.38170478 0.034993898 0.017920801
0.38436034 0.035796147 0.018142145
0.41534761 0.035866722 0.017717259
0.41811755 0.034691915 0.017909607
0.42144433 0.032929953 0.017992906
0.38334334 0.036349241 0.018506765
0.38620347 0.037125863 0.018145142
0.39007032 0.038189508 0.017853023
0.39404476 0.039033875 0.01790568
0.39816985 0.039348673 0.01811203
0.40212709 0.03926415 0.018070582
0.40599173 0.038889185 0.018070806
0.41001508 0.037939552 0.01799917
0.4137671 0.036819492 0.017903544
0.41671976 0.036309276 0.018337453
0.38314629 -0.036228213 0.021740228
0.38614333 -0.036896385 0.021979852
0.38994101 -0.037917428 0.022057453
0.39405817 -0.038697384 0.022087825
0.39794123 -0.03908059 0.021770597
0.4021087 -0.039042313 0.022188662
0.40594688 -0.038592238 0.021998728
0.40986171 -0.037762988 0.022217769
0.41348702 -0.036661152 0.022080965
0.41609144 -0.036446668 0.021730803
0.37815824 -0.033008296 0.022034192
0.38167804 -0.034713358 0.021991754
0.38453379 -0.03575566 0.022063576
0.41540557 -0.035743646 0.022201696
0.4180387 -0.034549318 0.021998573
0.42133015 -0.032791052 0.022105839
0.37175232 -0.028269475 0.021845181
0.37413058 -0.029897571 0.021920824
0.37684351 -0.03130684 0.021869514
0.42311376 -0.031321026 0.021892598
0.425565 -0.029546559 0.021967871
0.4281683 -0.028270865 0.021944694
0.37007043 -0.025899585 0.022082303
0.37246802 -0.027536608 0.021887952
0.42743924 -0.027586645 0.022002589
0.42946708 -0.025650665 0.021912521
0.36680192 -0.021825779 0.02196151
0.36859736 -0.023128998 0.021737706
0.43134764 -0.023088364 0.02194765
0.43288094 -0.021203471 0.022010583
0.36369184 -0.016753767 0.022140002
0.36505783 -0.018420085 0.022079337
0.43456703 -0.018064685 0.021958793
0.43631309 -0.016665684 0.021634549
0.36278066 -0.013814534 0.021964619
0.36426106 -0.015474807 0.022020942
0.4357231 -0.015434281 0.022080533
0.43668416 -0.013622518 0.021991538
0.36162928 -0.010059216 0.022142181
0.4377636 -0.010016683 0.022042951
0.36077645 -0.0061035086 0.021959973
0.43863615 -0.00598787 0.02195585
0.35997573 -0.00052621256 0.022340074
0.36046827 -0.002131243 0.022058144
0.43904027 -0.0019604485 0.0219722
0.35996497 0.00079825794 0.022225896
0.36055249 0.0023312091 0.022063408
0.43904743 0.0020758405 0.021943744
0.36074153 0.0060191602 0.022006921
0.43867639 0.0060078953 0.022004211
0.36156964 0.0099410471 0.022056678
0.43780276 0.0099127917 0.022030801
0.36275363 0.013809061 0.022006327
0.36423546 0.015575696 0.022244893
0.43579316 0.015281864 0.022022884
0.43682149 0.013524051 0.022047719
0.36365205 0.016773507 0.021867273
0.36501017 0.01852666 0.022097949
0.43467769 0.017990135 0.021928571
0.43632534 0.016697276 0.022193814
0.36672857 0.021767046 0.022063142
0.36857828 0.023123767 0.021923007
0.43124163 0.023266064 0.021991689
0.43287832 0.021415671 0.022064589
0.36798897 0.024071023 0.022120912
0.36998808 0.025965495 0.022005726
0.37249774 0.02767323 0.021970373
0.42742473 0.027660126 0.022099223
0.42959929 0.025760693 0.022117659
0.37178788 0.02834893 0.022059103
0.37407047 0.030032109 0.022015003
0.37681505 0.031511791 0.021955349
0.42314148 0.031339411 0.022063294
0.4256953 0.029643346 0.022074852
0.42812043 0.028445531 0.022841327
0.37802824 0.033082027 0.022174953
0.3815904 0.034943119 0.021926813
0.3845737 0.035861142 0.022059659
0.41548955 0.035810906 0.021910837
0.41819227 0.034650076 0.02198082
0.42154717 0.032909922 0.0219994
0.38321599 0.036292624 0.022115791
0.38610476 0.037110183 0.022057597
0.38987386 0.038177297 0.021939129
0.39374739 0.03897522 0.022032497
0.39792839 0.039285541 0.022052137
0.40226817 0.039339561 0.021861715
0.40596727 0.038792729 0.02207304
0.40994135 0.037981946 0.021854101
0.41365227 0.036826625 0.02203586
0.41661248 0.036334593 0.021883782
0.38341829 -0.036337726 0.025984662
0.38640213 -0.036890604 0.025899215
0.38988355 -0.037868299 0.025932861
0.39383107 -0.038630001 0.026089458
0.39811584 -0.039029781 0.025957586
0.40195516 -0.038998164 0.026186042
0.4061529 -0.038600758 0.02604159
0.41012514 -0.037698347 0.026108794
0.41351923 -0.036661934 0.026146885
0.41623574 -0.036377635 0.025912058
0.37840292 -0.033113819 0.025994895
0.38176268 -0.034814045 0.025982903
0.38457415 -0.035776332 0.026136808
0.41533759 -0.035770472 0.026044684
0.41802114 -0.034583174 0.026002238
0.42115062 -0.032905083 0.026218709
0.37169683 -0.028229222 0.025797494
0.37411642 -0.029903321 0.025987338
0.3767831 -0.031323206 0.026122337
0.42302844 -0.031376183 0.025961082
0.4256475 -0.029477296 0.026059192
0.42802504 -0.028409114 0.025100578
0.37000874 -0.025838217 0.026066676
0.37244987 -0.027519181 0.026175817
0.42759085 -0.027427839 0.0258187
0.42957187 -0.025594395 0.025990069
0.36680064 -0.021757867 0.02603621
0.36863938 -0.023110235 0.025797132
0.43124151 -0.023181327 0.025780976
0.43277219 -0.021365359 0.025998304
0.36366412 -0.016698072 0.025847152
0.36502847 -0.018355636 0.026040973
0.4345116 -0.018166784 0.026030298
0.43631697 -0.016661929 0.026128596
0.36276948 -0.013847047 0.026009681
0.36421046 -0.015351182 0.026337141
0.4357008 -0.015490232 0.025853649
0.43668646 -0.013594453 0.026021982
0.36161813 -0.0099790702 0.025971543
0.43775553 -0.010058369 0.026026571
0.36076832 -0.0058740349 0.026008718
0.43860811 -0.006139826 0.025940372
0.35998234 -0.00069346663 0.025997646
0.36039075 -0.0021430608 0.026045442
0.43904614 -0.0020612541 0.025988152
0.35997313 0.00072371511 0.026147019
0.3604776 0.0024460156 0.026059257
0.43905482 0.0019888368 0.025986997
0.36074552 0.005938828 0.026034439
0.43867868 0.0059760772 0.026008438
0.36156005 0.009919812 0.02607462
0.43783885 0.009881095 0.02596057
0.36275133 0.013853223 0.026040204
0.36426637 0.01565407 0.026534205
0.43578574 0.015293096 0.025932342
0.43681261 0.013564475 0.026050506
0.36364344 0.016752405 0.026007025
0.36503798 0.018552158 0.026049517
0.4346787 0.01802215 0.025953773
0.43635353 0.016638378 0.026421526
0.36668348 0.021755353 0.026129983
0.36854789 0.023088112 0.025752345
0.43127158 0.023231344 0.026055302
0.43288848 0.021398928 0.025981942
0.36797339 0.02403982 0.025788575
0.36997986 0.025941724 0.02599825
0.37241581 0.027592421 0.025932329
0.42754298 0.027546704 0.026049674
0.4296926 0.025631784 0.026011596
0.37171382 0.028282883 0.025888551
0.37398639 0.0299305 0.02601862
0.37676233 0.031385068 0.025997121
0.42309049 0.031386975 0.026078802
0.42572024 0.02966409 0.026078107
0.42822611 0.028335009 0.026824921
0.37596348 0.032026529 0.025720568
0.37810001 0.033154633 0.026015196
0.38153589 0.034858551 0.025865488
0.38431236 0.035755921 0.026139691
0.41556254 0.035769038 0.026189428
0.41817516 0.034621622 0.025954835
0.42135224 0.033076487 0.026079705
0.42400029 0.03204792 0.024307244
0.38326436 0.036309097 0.025839327
0.38612047 0.03709843 0.025930524
0.38995022 0.038179424 0.026080871
0.39375272 0.038933855 0.025913624
0.39813498 0.039329719 0.026273757
0.40177616 0.039314613 0.025951207
0.40587163 0.038801208 0.025993945
0.41005552 0.037936129 0.02596234
0.41355154 0.036867015 0.025987104
0.41683689 0.036249232 0.025413195
0.3835195 -0.036312453 0.028928099
0.38608068 -0.036896612 0.028868683
0.38997382 -0.038068097 0.028866686
0.39405295 -0.03892374 0.028904444
0.39798471 -0.039307244 0.02888025
0.40213564 -0.03926976 0.028866334
0.40606308 -0.038860891 0.028877672
0.41002858 -0.038006447 0.028882792
0.4137885 -0.036862772 0.028867651
0.41636944 -0.036207352 0.028957881
0.37838861 -0.033066105 0.02884928
0.38180453 -0.034878004 0.028886497
0.38438615 -0.035777342 0.02882742
0.41554803 -0.035745408 0.028785814
0.41812286 -0.034841966 0.02887626
0.42141584 -0.033016473 0.028882341
0.37161362 -0.028095705 0.028246919
0.37409708 -0.029818619 0.028832695
0.37661332 -0.031466216 0.0289183
0.42331535 -0.031465854 0.028783791
0.42584968 -0.029670289 0.028890032
0.42821065 -0.028106932 0.02894411
0.37011549 -0.025833432 0.028851608
0.37239668 -0.027779743 0.028812343
0.42765093 -0.02751953 0.028679442
0.4296543 -0.025850847 0.028858062
0.36683765 -0.021562103 0.028835824
0.36848885 -0.023306914 0.028798694
0.43145999 -0.023294842 0.028823022
0.43300524 -0.021474054 0.028835531
0.36356899 -0.016417522 0.028643547
0.36496481 -0.018202238 0.028869189
0.43486568 -0.018127553 0.028846115
0.43618608 -0.016438901 0.02892961
0.36297709 -0.013907036 0.028818924
0.36423656 -0.01569069 0.028837517
0.43577117 -0.015435883 0.028626449
0.43685338 -0.013804041 0.02884753
0.3618089 -0.010113398 0.028791353
0.43806094 -0.0099506415 0.028836003
0.36093277 -0.0060157585 0.028823547
0.43883005 -0.0061288211 0.028837118
0.36052018 -0.001997225 0.028880874
0.43926892 -0.0020181681 0.028792806
0.35995752 0.00053226086 0.028240491
0.36053216 0.0019760763 0.028903458
0.43931198 0.0020709552 0.028801501
0.36091366 0.0059243971 0.028824693
0.4388887 0.005935763 0.028848803
0.36171636 0.009934172 0.02883907
0.43805766 0.0099854926 0.028814778
0.36293897 0.01387667 0.028843604
0.36425042 0.015791576 0.028822113
0.4358575 0.015351933 0.028763492
0.436959 0.01380434 0.02888518
0.36370596 0.016618807 0.028715806
0.36501747 0.018341836 0.028865485
0.43493855 0.018072926 0.028851911
0.43633449 0.016290678 0.028890418
0.36696714 0.021845132 0.028817693
0.36843401 0.02332047 0.028844506
0.43152907 0.023296596 0.028798429
0.43305162 0.021534402 0.028859243
0.36794981 0.024099454 0.028761499
0.37015796 0.025948035 0.02881401
0.37237674 0.02764059 0.028522585
0.42754748 0.027662745 0.02878076
0.42970771 0.025861813 0.028864272
0.37184486 0.028305648 0.028811311
0.37403125 0.029846668 0.028843688
0.3766548 0.031619295 0.028880093
0.42338398 0.031501718 0.028878221
0.42586538 0.02977014 0.028871633
0.42808786 0.028140264 0.028971769
0.37828767 0.033096783 0.02883279
0.38162109 0.03496087 0.028821778
0.38498396 0.035997719 0.028983556
0.41564092 0.035800781 0.028559944
0.41829845 0.034867421 0.028807698
0.42152292 0.033091336 0.028869927
0.38340929 0.036266398 0.028593635
0.38603973 0.036938395 0.028872933
0.38992578 0.038178347 0.028854027
0.39399561 0.039029207 0.028918518
0.39800337 0.039387692 0.028918797
0.40213841 0.03940241 0.0288481
0.4060325 0.038988084 0.028901303
0.40994346 0.038189821 0.028901154
0.41392234 0.036903217 0.028918922
0.41663834 0.036215652 0.028860733
0.39989316 0.040001374 0.028995922
