# .PCD v0.7 - Point Cloud Data file format
VERSION 0.7
FIELDS x y z
SIZE 4 4 4
TYPE F F F
COUNT 1 1 1
WIDTH 820
HEIGHT 1
VIEWPOINT 0 0 0 1 0 0 0
POINTS 820
DATA ascii
0.3750031 -0.024506399 0.0033179517
0.37786466 -0.024778198 0.0029851664
0.38199416 -0.024779435 0.002881093
0.38614726 -0.024780763 0.0029984862
0.39030451 -0.024782091 0.0031164582
0.39402226 -0.024783224 0.0029341155
0.39774409 -0.024784356 0.0027517346
0.40235415 -0.024785917 0.0033914736
0.40606862 -0.024787007 0.0029873843
0.41022116 -0.024788296 0.002883248
0.41381767 -0.024789395 0.0026745629
0.41773024 -0.024790745 0.0034061815
0.42187756 -0.024791948 0.0028579824
0.4247824 -0.02454675 0.003299929
0.37494648 -0.022002775 0.0030985719
0.42498133 -0.021981059 0.0032970028
0.37494701 -0.017972466 0.0031729571
0.42498386 -0.017910294 0.0033165461
0.37494913 -0.013945574 0.0031291766
0.42498639 -0.013839968 0.0033360911
0.37495539 -0.010052447 0.0031511406
0.42498881 -0.0100414 0.0033543333
0.37495285 -0.0058710347 0.0031304827
0.42499134 -0.0059719402 0.003373865
0.37495908 -0.0021027641 0.003068004
0.4249939 -0.0019029144 0.0033934012
0.37495825 0.0020401191 0.0031196475
0.42499623 0.0018944385 0.0034116397
0.37496209 0.0060682488 0.0030656229
0.42499879 0.0059625972 0.0034311637
0.37496221 0.0099196872 0.0030618659
0.42500132 0.010030322 0.0034506868
0.37496594 0.013942838 0.0030769552
0.42500389 0.014097594 0.0034702108
0.37496808 0.018021258 0.0030342769
0.42500642 0.01816443 0.0034897348
0.37497002 0.021905787 0.003079213
0.42500874 0.021959743 0.0035079324
0.37500322 0.024355607 0.0029021397
0.37778637 0.02502053 0.0028420831
0.38172001 0.025017884 0.003088414
0.38609892 0.025014967 0.0030439545
0.39024043 0.025012231 0.002961609
0.39437601 0.025009505 0.0027562866
0.39774776 0.025007185 0.0034000464
0.40187159 0.025004501 0.0029509824
0.40602598 0.025001746 0.0028684649
0.40996212 0.024999099 0.0031152975
0.41394946 0.024996437 0.003189235
0.41768664 0.02499399 0.0028577377
0.42185408 0.024991233 0.0027750747
0.4246859 0.024694471 0.0032506317
0.37500131 -0.024529906 0.0062130485
0.37830102 -0.024779007 0.0060830908
0.38213694 -0.024780042 0.0060261684
0.38579285 -0.024781168 0.0059838993
0.3897354 -0.024782414 0.0060442234
0.39386731 -0.024783731 0.0061598821
0.39798409 -0.024785005 0.0060580848
0.40189531 -0.02478621 0.0059182881
0.406335 -0.024787627 0.006091252
0.4101899 -0.024788827 0.0060347598
0.41386339 -0.024789974 0.0059924629
0.41781902 -0.024791224 0.0060529043
0.42196169 -0.024792554 0.0061688228
0.42477006 -0.024635363 0.0065794685
0.37494457 -0.021980254 0.006185743
0.4249813 -0.022092024 0.0061656549
0.37495044 -0.018007223 0.0060468866
0.42498383 -0.018056508 0.0063144206
0.37494957 -0.01393441 0.0061800298
0.42498636 -0.014008795 0.0062041557
0.37495393 -0.010027678 0.0061103799
0.42498887 -0.0099767689 0.006352887
0.37495455 -0.0060595777 0.0060741524
0.42499134 -0.0060674171 0.0063067344
0.3749578 -0.0019558747 0.0061171046
0.42499384 -0.002027978 0.006325969
0.37496009 0.001989177 0.0060461182
0.42499638 0.0020110339 0.0063452078
0.37496188 0.0060896059 0.0061469488
0.42499894 0.0060495986 0.0063644364
0.37496459 0.0099426787 0.0060171974
0.42500141 0.010087737 0.0063836658
0.37496707 0.014013225 0.0060774693
0.4250038 0.013856267 0.0064016106
0.37496853 0.018077927 0.0059803473
0.42500627 0.017893549 0.0064208177
0.37497193 0.022040771 0.0061199213
0.4250088 0.021930408 0.0064398916
0.37512273 0.024581956 0.0059153563
0.37813306 0.025019929 0.0059371223
0.38208663 0.025017247 0.0060905949
0.38596028 0.025014699 0.0058932723
0.38998982 0.025011992 0.0060912576
0.39373457 0.025009513 0.0060185101
0.39794737 0.025006702 0.0061315442
0.40221226 0.025003897 0.0058924751
0.40620208 0.02500123 0.0059694964
0.41016337 0.024998577 0.0061233751
0.41384009 0.024996137 0.006091815
0.41793045 0.024993425 0.0059829266
0.42193428 0.024990782 0.0058808201
0.42481947 0.024564557 0.0065116584
0.37508255 -0.024492819 0.0099513354
0.3778283 -0.024779793 0.0099846516
0.38190687 -0.024780817 0.0099391313
0.38602489 -0.024781998 0.010269451
0.39006358 -0.024783153 0.0097391708
0.3941831 -0.024784504 0.010072702
0.3982721 -0.024785778 0.01002717
0.40195781 -0.024786931 0.010012149
0.40564382 -0.024788089 0.0099998778
0.4097417 -0.024789369 0.0099551314
0.41385835 -0.024790715 0.010286667
0.4179433 -0.024791908 0.0097554084
0.42206138 -0.024793254 0.010089611
0.42488843 -0.024567803 0.010035105
0.37494671 -0.022021933 0.010110238
0.42498147 -0.021979062 0.010143815
0.37494957 -0.017937478 0.0100761
0.42498398 -0.017971089 0.010035622
0.37495217 -0.013994327 0.010034301
0.42498645 -0.013976108 0.010181503
0.3749536 -0.0099099232 0.010090246
0.42498893 -0.0099664321 0.010073333
0.37495711 -0.0059378631 0.0099475039
0.42499149 -0.005974873 0.010219186
0.37495849 -0.00189781 0.010084357
0.42499402 -0.0019634932 0.010111032
0.37495977 0.0019508355 0.01000899
0.42499647 0.0020246478 0.010256859
0.37496454 0.0058955322 0.010008133
0.42499894 0.0058971117 0.010211585
0.3749637 0.0099694533 0.010047951
0.42500141 0.0098964497 0.010230421
0.37496942 0.01395228 0.0099450601
0.42500392 0.01389537 0.010249239
0.37496835 0.018082503 0.010027992
0.42500633 0.017893851 0.010267927
0.37497401 0.022100156 0.0099092992
0.4250088 0.021891918 0.010286547
0.3750338 0.024583641 0.0099285264
0.37778473 0.025019685 0.010121046
0.38200018 0.025016835 0.010063079
0.38594362 0.02501419 0.0099639744
0.38989323 0.025011552 0.010041536
0.39411768 0.025008777 0.0098087406
0.39823627 0.025006002 0.010086698
0.40202114 0.025003511 0.0098487502
0.40602431 0.025000829 0.010045966
0.41004571 0.024998149 0.010062278
0.41382077 0.024995646 0.010004239
0.41778222 0.024993004 0.010081968
0.42203689 0.024990201 0.0098487223
0.42484462 0.024523215 0.010275593
0.3750084 -0.024557501 0.014071891
0.37806883 -0.024780799 0.01405704
0.38211548 -0.024781728 0.013637863
0.38608894 -0.024782833 0.014061458
0.39005128 -0.024783935 0.014156121
0.39386296 -0.024785066 0.013924453
0.39764819 -0.024786245 0.01387263
0.40200722 -0.024787679 0.014251113
0.40587044 -0.02478883 0.013908622
0.40993387 -0.02479009 0.013812177
0.41422343 -0.024791501 0.014179461
0.41808718 -0.024792688 0.014044595
0.42215937 -0.024793953 0.013948141
0.4248496 -0.024512874 0.013604525
0.3749491 -0.021989815 0.013887592
0.42498153 -0.021993294 0.013856234
0.37494987 -0.018026512 0.014047805
0.42498401 -0.018029066 0.013874707
0.37495288 -0.014002655 0.013885068
0.42498663 -0.013929061 0.013831488
0.37495536 -0.010099013 0.013966863
0.42498904 -0.0099738128 0.013974565
0.37495598 -0.006029224 0.013959855
0.42499152 -0.0060014632 0.01386843
0.37496087 -0.0020755392 0.013869861
0.42499399 -0.002049569 0.014011483
0.37496153 0.0020281672 0.014150655
0.42499658 0.002049933 0.013968267
0.37496543 0.0060082357 0.014111401
0.42499906 0.0060116216 0.013986728
0.37496626 0.010062057 0.014208561
0.42500147 0.0099728815 0.014005177
0.37496999 0.014090398 0.014061889
0.42500398 0.013933728 0.014023491
0.37497139 0.018060584 0.014172259
0.42500639 0.017894147 0.014041735
0.37497419 0.022073448 0.014096539
0.42500895 0.022118142 0.0140612
0.37505326 0.0247376 0.013906215
0.37805673 0.025019031 0.014154966
0.38195044 0.025016418 0.013953673
0.38611603 0.02501359 0.013999436
0.39025432 0.025010802 0.014062032
0.39397147 0.025008352 0.013837248
0.39772475 0.025005814 0.014208426
0.40192139 0.025003051 0.013979451
0.40584755 0.025000431 0.014056393
0.40977716 0.02499783 0.013959673
0.41398525 0.024995033 0.013905903
0.4180716 0.024992285 0.014181028
0.42214239 0.024989607 0.013928905
0.42486963 0.024834616 0.013975424
0.37501466 -0.024442393 0.018048128
0.37797311 -0.024781777 0.018363053
0.38193345 -0.024782661 0.01785163
0.38594568 -0.02478366 0.017757226
0.39019957 -0.024784865 0.018322669
0.39401641 -0.024785833 0.017986644
0.39803711 -0.024787059 0.017893022
0.40207416 -0.024788348 0.018008552
0.40611476 -0.024789635 0.018123951
0.41014403 -0.024790887 0.018030386
0.41398707 -0.024792036 0.017694656
0.41822872 -0.024793465 0.018261487
0.42226663 -0.024794713 0.018167932
0.42487851 -0.02459619 0.01748557
0.37494937 -0.022009701 0.018169479
0.42498162 -0.022006655 0.017499825
0.37495205 -0.017977461 0.017952811
0.4249841 -0.018085307 0.017640229
0.37495455 -0.013988334 0.018162329
0.4249866 -0.01402523 0.017597781
0.37495631 -0.0099347131 0.017946694
0.42498913 -0.0099636978 0.017555352
0.37495983 -0.0059970305 0.018111087
0.42499161 -0.0060473979 0.017695718
0.3749609 -0.0019316241 0.017981006
0.42499411 -0.0019867385 0.017653275
0.37496439 0.0020027179 0.018253833
0.42499658 0.0020753746 0.017610868
0.37496427 0.0059997612 0.018289274
0.42499912 0.0059866295 0.017751176
0.37496686 0.010084869 0.018228211
0.42500162 0.010047868 0.017708622
0.37497038 0.01405267 0.01827639
0.42500398 0.013971361 0.017726501
0.37497148 0.018096536 0.018167153
0.42500642 0.017894439 0.017744388
0.37497491 0.022024024 0.018289478
0.42500895 0.022078607 0.017763454
0.37502888 0.02468029 0.018125856
0.37788293 0.025018707 0.018060723
0.38191444 0.02501596 0.018158715
0.38591278 0.025013277 0.017913299
0.38979989 0.025010634 0.017990587
0.39411953 0.02500773 0.017962258
0.39801085 0.025005138 0.018039105
0.401903 0.02500256 0.017945146
0.40607175 0.02499979 0.017893504
0.41012493 0.024997061 0.018165307
0.41415441 0.024994412 0.017918553
0.4182021 0.024991704 0.018019728
0.42232418 0.024988951 0.018130301
0.42486852 0.02481945 0.017932793
0.37502557 -0.024630513 0.021851206
0.37815306 -0.024782728 0.022242984
0.38199157 -0.024783675 0.022125993
0.3859486 -0.024784608 0.021829875
0.38990459 -0.024785636 0.021935984
0.39415407 -0.024786798 0.02229579
0.39815682 -0.024787797 0.021892624
0.40193135 -0.024788972 0.021875229
0.40635499 -0.024790427 0.022268847
0.41016605 -0.024791582 0.022031395
0.41412231 -0.024792789 0.021841075
0.41845024 -0.024794215 0.022218913
0.42219067 -0.024795376 0.022170385
0.42480347 -0.024566328 0.022359701
0.3749541 -0.021959238 0.022027833
0.42498168 -0.022018909 0.022013556
0.37495351 -0.017973077 0.021982543
0.42498416 -0.018050494 0.022109177
0.37495896 -0.013956062 0.02196601
0.42498666 -0.014084948 0.022205506
0.37495819 -0.0099862255 0.021965684
0.42498922 -0.010031554 0.022145899
0.37496325 -0.0060302196 0.02188812
0.42499173 -0.0059761684 0.022086553
0.37496215 -0.0020451853 0.022082742
0.42499417 -0.0020126922 0.02218214
0.374964 0.0018740031 0.022040665
0.42499667 0.0019478856 0.022278409
0.37496644 0.0060222549 0.02211543
0.42499903 0.005873973 0.021481499
0.3749682 0.0099771013 0.022074746
0.42500168 0.010121452 0.021342808
0.37497118 0.014059297 0.022114797
0.42500404 0.014008292 0.021360338
0.3749713 0.018063661 0.022046635
0.42500639 0.017894723 0.021377865
0.37497658 0.022068204 0.022023153
0.42500892 0.022039814 0.021396555
0.37508148 0.024649981 0.02202585
0.37814996 0.025018077 0.021968752
0.38214651 0.025015363 0.021975666
0.38602602 0.025012715 0.022148075
0.39013651 0.025009934 0.022095911
0.39399469 0.02500736 0.021730784
0.39808539 0.025004584 0.02194996
0.40213886 0.02500185 0.022223435
0.40630233 0.024999134 0.021840315
0.4103148 0.02499645 0.02194101
0.41433522 0.024993742 0.022209719
0.41833636 0.024991106 0.021968124
0.42227468 0.024988504 0.021886909
0.42493001 0.024749113 0.021750614
0.37502232 -0.024471726 0.025771804
0.37805963 -0.024783583 0.026013035
0.38204688 -0.024784666 0.026328331
0.38594988 -0.024785539 0.025835494
0.38990039 -0.024786521 0.025746489
0.39392275 -0.024787707 0.026466176
0.39784384 -0.024788588 0.025973212
0.40180272 -0.024789637 0.025884449
0.40577608 -0.024790891 0.025998663
0.40975279 -0.024792153 0.026112815
0.41371995 -0.024793386 0.026024645
0.41750532 -0.024794519 0.025701858
0.42167687 -0.024795923 0.026253235
0.42471939 -0.024669524 0.026331982
0.37495026 -0.02203553 0.025839267
0.42498183 -0.021984449 0.026524501
0.37495551 -0.018076627 0.025931757
0.42498437 -0.017892271 0.02654287
0.37495485 -0.014015935 0.025736086
0.42498687 -0.013924477 0.026502315
0.3749595 -0.0099957734 0.025924159
0.42498922 -0.010096728 0.026636245
0.37496048 -0.0059359153 0.025810678
0.42499179 -0.006129764 0.026595682
0.37496439 -0.001950609 0.025884636
0.42499429 -0.0020393278 0.026614029
0.37496814 0.0019544195 0.025966406
0.42499676 0.0020506554 0.026632234
0.37496948 0.0059763957 0.025950657
0.42499936 0.0061935843 0.025846483
0.37497312 0.0098852785 0.025949411
0.42500165 0.010047207 0.02570699
0.37497419 0.014077255 0.025926225
0.42500401 0.013876477 0.025880674
0.37497717 0.018015938 0.025940271
0.42500642 0.017895071 0.025821975
0.37497869 0.022028768 0.025926493
0.42500889 0.021992365 0.025840215
0.37507769 0.024704246 0.026025046
0.37801698 0.025017696 0.026086658
0.38194689 0.025015054 0.025850555
0.38591671 0.025012355 0.025950497
0.38990262 0.025009619 0.026215434
0.39384443 0.025006972 0.025979279
0.39779243 0.025004318 0.025743669
0.40186498 0.025001526 0.026188506
0.40575746 0.024998946 0.026108351
0.40971741 0.024996346 0.025872851
0.41355219 0.024993779 0.025950253
0.41781291 0.024990931 0.026090756
0.42165795 0.024988389 0.026002288
0.42471591 0.024750076 0.025846947
0.3750599 -0.02456251 0.029939702
0.37812597 -0.024784517 0.029948929
0.3820813 -0.024785593 0.030260449
0.38615426 -0.02478656 0.030007314
0.39026985 -0.024787543 0.029761121
0.39425874 -0.024788724 0.030470258
0.39814809 -0.024789596 0.029986579
0.40207458 -0.024790568 0.029900257
0.4060154 -0.024791669 0.030012326
0.40995938 -0.024792913 0.030126825
0.413894 -0.024794128 0.030041313
0.41781837 -0.024795281 0.02955677
0.42178541 -0.024796646 0.03026861
0.42473119 -0.024688959 0.030212441
0.37495193 -0.022019818 0.029819177
0.4249818 -0.022126844 0.029994689
0.37495416 -0.01793607 0.029839629
0.42498437 -0.018072007 0.030012701
0.37495604 -0.014037354 0.029851411
0.4249869 -0.014017604 0.030030722
0.37495923 -0.0099552982 0.02985359
0.42498943 -0.0099636447 0.030048732
0.37496153 -0.0060549113 0.029800214
0.42499191 -0.0059101256 0.030066738
0.37496263 -0.0020838806 0.029761432
0.42499444 -0.0018570549 0.030084597
0.37496662 0.0021008654 0.029825415
0.42499682 0.0020752591 0.030044574
0.37496698 0.0059596458 0.029755887
0.42499918 0.0059951013 0.030119093
0.37497118 0.0099879541 0.029807063
0.42500159 0.0099127684 0.030193595
0.3749727 0.014100804 0.029876623
0.42500401 0.013844469 0.030153576
0.37497458 0.018129516 0.029994272
0.42500648 0.017895415 0.030171376
0.37497944 0.021948764 0.030029433
0.42500895 0.021945924 0.030189166
0.37501824 0.024637403 0.03008436
0.37788755 0.025017321 0.030135283
0.38192552 0.025014587 0.030087404
0.38599461 0.025011869 0.029719504
0.39021996 0.025008935 0.030297067
0.39419451 0.025006263 0.030126363
0.39810923 0.025003634 0.029895104
0.40196878 0.025001021 0.029818773
0.40600654 0.024998249 0.030256882
0.40993303 0.024995672 0.030025721
0.41386569 0.024993083 0.029795097
0.41775513 0.024990464 0.030048473
0.42177215 0.02498778 0.030156743
0.42478874 0.024759857 0.030083789
0.37500098 -0.024425078 0.033911716
0.3780303 -0.024785461 0.034111518
0.38211355 -0.024786498 0.034128979
0.38599372 -0.02478746 0.034045495
0.39000261 -0.024788417 0.033790898
0.3937988 -0.02478949 0.034269504
0.39788815 -0.024790468 0.034028217
0.40213281 -0.024791516 0.033901837
0.40626231 -0.024792621 0.034158356
0.41016254 -0.024793671 0.034075417
0.41406518 -0.024794869 0.033992447
0.41810706 -0.024796093 0.033738047
0.42189223 -0.024797361 0.034218449
0.42479742 -0.02458532 0.034333378
0.37495431 -0.02191563 0.033738647
0.42498195 -0.022008466 0.034242477
0.37495542 -0.018096395 0.033834778
0.42498448 -0.017999345 0.034260061
0.37495825 -0.013989317 0.033786543
0.42498696 -0.013990655 0.034277644
0.37496108 -0.010059902 0.033715721
0.42498949 -0.0099823968 0.034295212
0.37496153 -0.006046915 0.033851054
0.42499185 -0.0060610077 0.034385458
0.37496644 -0.0020351745 0.033737697
0.42499426 -0.0021801086 0.033490133
0.37496623 0.0020438312 0.03372357
0.4249967 0.0018359042 0.033507597
0.37496966 0.0060109366 0.033736899
0.42499918 0.005851489 0.033525053
0.37497237 0.0099992603 0.033774078
0.42500162 0.0098666465 0.033542514
0.37497377 0.014034923 0.033773288
0.42500407 0.01388138 0.033559971
0.37497464 0.018047053 0.033938117
0.42500648 0.017895682 0.03357742
0.37497908 0.02203279 0.033883899
0.42500895 0.021909557 0.033594877
0.37509421 0.024678241 0.033794343
0.37831667 0.025016559 0.034199502
0.38206759 0.025014028 0.034116413
0.38593686 0.025011431 0.033890393
0.38990763 0.025008723 0.033998184
0.39393198 0.025005985 0.034113169
0.39794824 0.025003264 0.034067266
0.40214634 0.025000442 0.033818603
0.40637267 0.024997534 0.034192659
0.41014504 0.024995007 0.034109447
0.41404468 0.024992447 0.033883061
0.41802669 0.024989774 0.033991229
0.42188433 0.024987182 0.034241971
0.424676 0.024661291 0.033819854
0.37501889 -0.024601633 0.038018219
0.37785795 -0.024786351 0.038127303
0.38198936 -0.024787391 0.038096819
0.38599619 -0.02478835 0.037855417
0.39007425 -0.024789447 0.03812832
0.39413041 -0.024790477 0.038146794
0.39798743 -0.02479144 0.038065847
0.40197647 -0.02479239 0.037816539
0.40565264 -0.024793379 0.038083151
0.40998209 -0.02479448 0.038084127
0.41423354 -0.024795599 0.037879653
0.41811398 -0.024796827 0.037991062
0.42199731 -0.024798065 0.038104352
0.42476511 -0.024568634 0.038433399
0.37495396 -0.022068249 0.038039345
0.42498207 -0.021975594 0.03840138
0.37495726 -0.01790677 0.037862331
0.42498457 -0.018011231 0.03841855
0.37495962 -0.013961071 0.037951555
0.42498705 -0.014047288 0.038435709
0.37496042 -0.010061039 0.037906628
0.42498955 -0.00996383 0.038501564
0.37496385 -0.0060117794 0.037968066
0.42499202 -0.0058735656 0.038470745
0.37496662 -0.0018864917 0.037882779
0.42499438 -0.0019554482 0.037661016
0.3749676 0.0019739633 0.037907008
0.42499682 0.0020156789 0.037678067
0.37496972 0.0059416783 0.03786236
0.42499933 0.0059863888 0.037695117
0.3749747 0.010029532 0.037903022
0.42500165 0.0099566793 0.037712153
0.37497416 0.014076605 0.037814349
0.42500412 0.013926554 0.037729196
0.3749775 0.018029282 0.037854746
0.42500651 0.01789601 0.037746236
0.37498033 0.021936819 0.037904527
0.42500892 0.021865046 0.037763279
0.37505132 0.024613144 0.037723452
0.3779344 0.025016379 0.038077615
0.38190699 0.025013685 0.038034059
0.38603029 0.025010889 0.038034491
0.39007416 0.025008174 0.037821051
0.39410794 0.025005389 0.03825552
0.39795652 0.025002802 0.038035285
0.40181112 0.025000215 0.03781385
0.40591979 0.024997402 0.038035281
0.41019112 0.024994487 0.038190488
0.4142206 0.024991812 0.037903462
0.41796884 0.024989327 0.037822407
0.42199472 0.024986595 0.038257964
0.42483804 0.02450539 0.037862178
0.37504184 -0.024495024 0.041961305
0.37804115 -0.024787359 0.042260751
0.38222033 -0.024788372 0.042061482
0.38615763 -0.024789311 0.041817915
0.38980249 -0.024790298 0.042080875
0.39390802 -0.024791332 0.042052161
0.39807788 -0.024792356 0.041932635
0.40200901 -0.024793409 0.042159632
0.40596947 -0.024794392 0.042105127
0.40980348 -0.02479535 0.042026669
0.41410753 -0.024796393 0.041812479
0.41812173 -0.02479757 0.042169753
0.42210069 -0.024798755 0.041927852
0.4247559 -0.0245823 0.041762583
0.37495568 -0.02189469 0.042023759
0.42498216 -0.02199317 0.041707106
0.3749575 -0.018030144 0.042052735
0.42498469 -0.017939329 0.041676983
0.37496012 -0.014101706 0.042032775
0.42498711 -0.014010466 0.04169371
0.37496173 -0.010031899 0.042032175
0.42498946 -0.010082019 0.041710362
0.3749654 -0.005861125 0.041979529
0.42499188 -0.0061539817 0.04172701
0.37496641 -0.0020359992 0.042015161
0.42499435 -0.0020987389 0.041696731
0.37496874 0.0018973567 0.041972514
0.42499691 0.0020641361 0.041809324
0.3749719 0.0059740413 0.042019691
0.42499933 0.0061185011 0.04177903
0.37497437 0.010053244 0.04195445
0.42500174 0.010044853 0.041795675
0.37497559 0.013927413 0.042004384
0.42500415 0.013970795 0.041812316
0.37497634 0.017905414 0.041998781
0.42500654 0.01789633 0.041828953
0.37497985 0.021945132 0.04212125
0.42500898 0.021821456 0.041845586
0.37504613 0.024583921 0.041965876
0.37809372 0.025015797 0.042168893
0.38218436 0.025013033 0.042105336
0.38598904 0.025010476 0.041890014
0.38986969 0.025007853 0.041837681
0.39384323 0.025005117 0.042174987
0.39810511 0.025002243 0.042046256
0.40208694 0.024999568 0.041765284
0.4058345 0.024996988 0.04215765
0.40979213 0.024994304 0.042115815
0.41408676 0.024991425 0.041873857
0.41835594 0.024988541 0.041969251
0.4221032 0.024986019 0.042208161
0.42481041 0.024674674 0.0419305
0.37507233 -0.024557872 0.045941573
0.37812701 -0.024788279 0.046124715
0.38202563 -0.024789212 0.045886699
0.38586378 -0.024790205 0.045960244
0.3900567 -0.024791317 0.04618001
0.39403862 -0.024792269 0.045954995
0.39795986 -0.024793254 0.045900077
0.40185958 -0.024794292 0.046127319
0.40600148 -0.024795312 0.046010241
0.41008231 -0.024796344 0.045982588
0.4136982 -0.024797278 0.046057761
0.41801789 -0.024798378 0.046072289
0.42220244 -0.024799448 0.045690473
0.42486098 -0.024582371 0.045752414
0.37495488 -0.022046492 0.045859084
0.42498222 -0.02199945 0.045712508
0.37495905 -0.018014103 0.045912728
0.42498466 -0.018033003 0.045666095
0.37496039 -0.013986961 0.046042133
0.42498708 -0.014064878 0.045619443
0.37496296 -0.0098393708 0.04608332
0.42498955 -0.010018005 0.045699835
0.37496385 -0.0060339347 0.046182238
0.42499202 -0.0059736497 0.045779653
0.37496576 -0.0021026582 0.04620662
0.42499444 -0.002006097 0.04573318
0.37496746 0.0019235709 0.046151403
0.42499676 0.0018781893 0.045749437
0.37497029 0.0060776589 0.046162974
0.4249993 0.0060048006 0.045766715
0.3749733 0.010046772 0.046158124
0.42500183 0.01013097 0.045783985
0.37497348 0.014004354 0.046161123
0.42500415 0.014014007 0.045800235
0.3749783 0.017831398 0.046188489
0.4250066 0.017896645 0.045816492
0.37498203 0.021956427 0.046307571
0.4250091 0.0220215 0.045833755
0.37505433 0.02459087 0.046155196
0.37782174 0.02501552 0.046192281
0.38186425 0.025012799 0.046021853
0.38594952 0.02501007 0.045683183
0.39003402 0.025007231 0.046234768
0.39402422 0.025004542 0.046116065
0.397809 0.025002001 0.045904595
0.40210935 0.024999078 0.045937032
0.40620309 0.024996273 0.046209607
0.40999997 0.024993723 0.04599886
0.41380262 0.024991171 0.045786981
0.41787204 0.024988361 0.04618812
0.42220995 0.024985449 0.04609251
0.4248825 0.024763722 0.045875486
0.37524712 -0.024514355 0.049368132
0.37802771 -0.024473947 0.049877409
0.38192537 -0.024455411 0.049875837
0.38593385 -0.024501441 0.049906015
0.38999477 -0.024450909 0.049877971
0.39405003 -0.02449338 0.049868256
0.39789206 -0.024541851 0.049898706
0.40189624 -0.024472868 0.049898941
0.40599579 -0.024499994 0.049857631
0.40998805 -0.024509173 0.049883898
0.41391736 -0.024450518 0.049919091
0.41795692 -0.024547834 0.049883466
0.4219726 -0.024553945 0.049834382
0.42451409 -0.024472443 0.049771409
0.37526399 -0.02200615 0.049459446
0.37796441 -0.021913413 0.04998327
0.38199064 -0.021960383 0.049980421
0.38594481 -0.021957481 0.049981631
0.39002639 -0.021912945 0.049979564
0.39404798 -0.02194717 0.049982458
0.39793989 -0.022018995 0.049982075
0.40190202 -0.021939276 0.049982321
0.40592733 -0.021957492 0.049982149
0.40996274 -0.021985486 0.049978983
0.41398266 -0.021935476 0.049980979
0.41800547 -0.021972183 0.049981538
0.42197913 -0.022002749 0.049985226
0.42453113 -0.021970168 0.049833372
0.37528935 -0.017982811 0.049486473
0.37799755 -0.017928261 0.049983706
0.3820056 -0.017986121 0.049979441
0.38593793 -0.017949952 0.049984381
0.38998505 -0.017949399 0.04997991
0.39408928 -0.017913513 0.049982592
0.39793015 -0.017968945 0.049982991
0.40188205 -0.017984165 0.04998225
0.40593666 -0.01792201 0.049982764
0.40993428 -0.017991785 0.049978085
0.41400105 -0.017991211 0.049982566
0.41802835 -0.017932892 0.049981814
0.4219754 -0.018003237 0.049985018
0.42454228 -0.017944228 0.04981897
0.37528315 -0.013910972 0.04954939
0.37797749 -0.013905915 0.049984138
0.38198933 -0.013962364 0.049980886
0.38592473 -0.013986227 0.049983136
0.39001381 -0.013980691 0.049980752
0.39404216 -0.013889186 0.049983896
0.39792597 -0.01398883 0.049982924
0.40189871 -0.01398034 0.049982961
0.40593746 -0.013932377 0.049982976
0.40995276 -0.013925844 0.049979988
0.41394562 -0.013987662 0.049981743
0.4180167 -0.013986277 0.049982995
0.42199856 -0.013961722 0.049985901
0.4245156 -0.013956908 0.049836542
0.37531438 -0.010033217 0.049632587
0.37799016 -0.0098612038 0.049984325
0.38199759 -0.0099661639 0.049981307
0.38593736 -0.0099756056 0.049984783
0.38997996 -0.009947204 0.049980294
0.39405718 -0.0099320738 0.049983598
0.39792395 -0.0099415937 0.049984042
0.40188161 -0.010039719 0.049984023
0.40592158 -0.0099280654 0.04998228
0.40996426 -0.0099596195 0.049980704
0.41399971 -0.0099495705 0.049983442
0.4180055 -0.0099935709 0.049982809
0.42197651 -0.0099679772 0.049985342
0.42452917 -0.0099064801 0.049844462
0.37531644 -0.0060605826 0.049666621
0.37795797 -0.0059153191 0.049985867
0.38196853 -0.0059913918 0.049980991
0.38590577 -0.0059999102 0.049984932
0.39001814 -0.0059371958 0.049981583
0.39405233 -0.0059181228 0.049984518
0.39795378 -0.0059080417 0.049984284
0.40185514 -0.0059835277 0.049983412
0.40598011 -0.0059903138 0.049981508
0.41001397 -0.0059770299 0.04998292
0.4139508 -0.0059377849 0.049983248
0.41799179 -0.0059764618 0.049984276
0.42194572 -0.0059788725 0.049987081
0.42450589 -0.0059493924 0.049841996
0.37533402 -0.0019977158 0.049707402
0.37796992 -0.0019404935 0.049985647
0.3820039 -0.0020156584 0.049982309
0.38594002 -0.0020218722 0.049984891
0.3899546 -0.0019693682 0.049981706
0.39402753 -0.0019331337 0.049985144
0.39790809 -0.0019164444 0.049984775
0.40190321 -0.0019634117 0.049985372
0.40599003 -0.002007839 0.04998105
0.40998954 -0.0019425891 0.049984392
0.4139742 -0.0019574177 0.049984749
0.41800404 -0.001946456 0.04998349
0.42201847 -0.0019419105 0.049986754
0.42454761 -0.0019750234 0.049830552
0.37530404 0.0020860943 0.049645264
0.3779676 0.0020355994 0.049985882
0.38196659 0.0019801566 0.04998292
0.38591781 0.0020414654 0.049986042
0.38998163 0.002021468 0.04998184
0.39403123 0.0020289142 0.049985297
0.39792755 0.0020489416 0.049985651
0.4018836 0.0020766042 0.049985349
0.40598929 0.0020206326 0.049981359
0.41000056 0.0020398533 0.049984738
0.41395986 0.00200632 0.049984891
0.41800085 0.0020102141 0.049985118
0.4220221 0.0020482314 0.049984004
0.42456853 0.0020529618 0.049846444
0.37534112 0.0060401778 0.049694765
0.37799054 0.0060092239 0.049986586
0.38195756 0.0059990743 0.049982823
0.38590553 0.0060471082 0.049986329
0.38999084 0.0060427785 0.04998349
0.39405274 0.0060530938 0.049986009
0.39789727 0.0060673011 0.049984846
0.40185967 0.0060838717 0.049985074
0.40598115 0.0060944194 0.049982525
0.41001678 0.0060661705 0.049986068
0.4139601 0.0060263369 0.049985364
0.4179925 0.0060193515 0.049984142
0.42202154 0.0060210787 0.049985152
0.42458016 0.0059991721 0.049850173
0.37529713 0.010096989 0.049636561
0.37795854 0.0099679567 0.049986448
0.38198504 0.010016015 0.049983189
0.38592002 0.010013206 0.04998647
0.38996542 0.010015509 0.049982667
0.39401242 0.010019149 0.049986452
0.39792502 0.010056095 0.049987391
0.40188062 0.010038578 0.049986959
0.40596449 0.010056145 0.049983159
0.40999341 0.010040071 0.049985684
0.4139463 0.010059601 0.049985997
0.41799179 0.010084219 0.049985155
0.42202124 0.010032022 0.049985025
0.42457452 0.010038553 0.049836688
0.37533292 0.014001186 0.049707446
0.37795365 0.013970341 0.049988676
0.38195115 0.013988546 0.049985301
0.385903 0.013991206 0.049988035
0.38998252 0.014018334 0.049983706
0.39403939 0.014004623 0.049986217
0.39795884 0.014038082 0.049985848
0.4019061 0.014026573 0.049985602
0.40596911 0.014014216 0.049981989
0.40999201 0.014017077 0.049985714
0.41394573 0.014042763 0.049984474
0.41798937 0.014056337 0.049986325
0.4220289 0.014071071 0.04998624
0.42457035 0.014040189 0.04985258
0.37531024 0.017956063 0.049638622
0.37797403 0.018018598 0.049988106
0.38196921 0.017983375 0.049983796
0.38589862 0.017996248 0.049987569
0.38996133 0.018030005 0.049983967
0.39402941 0.018039545 0.049988497
0.39799374 0.018044889 0.049988028
0.40193114 0.018023359 0.049987439
0.40596139 0.018064944 0.049983967
0.40999958 0.018041888 0.04998691
0.41396207 0.018039685 0.049987573
0.41797987 0.018052069 0.049986195
0.4220157 0.018043732 0.049985975
0.42457703 0.018037857 0.049854156
0.37531102 0.021928979 0.04966075
0.37793797 0.021994727 0.049988128
0.38195106 0.021989459 0.049984366
0.38590878 0.022022473 0.049987923
0.38995492 0.021987436 0.049984429
0.39400813 0.022014774 0.049987681
0.39798909 0.021970274 0.049988233
0.4019326 0.02200303 0.049988687
0.40598577 0.022026006 0.049985018
0.40997383 0.022063378 0.049987748
0.41393164 0.022064522 0.049987033
0.41797975 0.02205953 0.049988173
0.42202008 0.022077382 0.049987428
0.42456901 0.022005646 0.049848951
0.37533772 0.024514707 0.049653027
0.37797654 0.024529736 0.049887415
0.38197878 0.024562601 0.049886119
0.38588247 0.024598747 0.049841501
0.38993385 0.024552863 0.049908221
0.39411539 0.02457338 0.049875945
0.39802101 0.02455489 0.049882449
0.40194234 0.024547316 0.049897745
0.40591604 0.024598589 0.04988344
0.41006047 0.024614247 0.049859565
0.41403142 0.02462887 0.049850475
0.41801652 0.024633583 0.04988436
0.42199492 0.024637429 0.04988838
0.42459068 0.024594575 0.049752887
